# .PCD v0.7 - Point Cloud Data file format
VERSION 0.7
FIELDS x y z
SIZE 4 4 4
TYPE F F F
COUNT 1 1 1
WIDTH 726
HEIGHT 1
VIEWPOINT 0 0 0 1 0 0 0
POINTS 726
DATA ascii
0.0004206989 -0.033844624 0.040988587
0.0055057695 -0.030614424 0.041984599
0.00042043417 -0.030023469 0.043831911
-0.0046645594 -0.030614423 0.041983657
0.0055251056 -0.025442 0.042439383
-4.3137465e-005 -0.025493247 0.044331402
-0.0052647805 -0.025072539 0.041983601
0.0004206067 -0.020941861 0.04198413
0.0031341503 -0.035269871 0.037089337
-0.0022920344 -0.035269871 0.037088837
0.0075240294 -0.032080445 0.037089746
-0.0066819107 -0.032080445 0.037088431
0.009200817 -0.026919836 0.037089903
-0.0083586955 -0.026919836 0.037088275
0.005329093 -0.020164508 0.037089542
-0.0022920344 -0.018569797 0.037088845
-0.0066819107 -0.021759216 0.037088431
0.0030664743 -0.035060406 0.032917604
-0.00046007731 -0.034249887 0.031244665
0.0068292441 -0.031575292 0.031663496
0.00024676882 -0.030498516 0.029677216
-0.0059861215 -0.031575292 0.031662311
0.0089809587 -0.026919836 0.032918151
0.0063595641 -0.024398139 0.030373279
0.00024668453 -0.023370881 0.030977435
-0.0056328275 -0.024398131 0.030372165
-0.0081380662 -0.026919836 0.032916568
0.0052220933 -0.019494068 0.031860184
-0.00017734757 -0.018859323 0.030948874
-0.0056316392 -0.019851457 0.031330358
0.014419225 -0.03608501 0.023726784
0.0093797678 -0.038282312 0.024365023
0.005006752 -0.036587827 0.025892913
0.00024702121 -0.035948291 0.02646843
-0.0045125708 -0.036587771 0.02589203
-0.0088852998 -0.038282216 0.024363331
-0.01392461 -0.036084913 0.023724157
0.01207839 -0.033034883 0.026031177
0.0058150319 -0.030644268 0.028367519
0.00042194128 -0.030023465 0.027565125
-0.0038660108 -0.030335128 0.028662853
-0.0097329784 -0.032148596 0.02690139
0.015514881 -0.025657063 0.02560075
0.010036008 -0.024298128 0.028584838
0.0045388928 -0.025883358 0.027991623
-4.1537685e-005 -0.025493249 0.027065549
-0.0043630446 -0.025365122 0.028416917
-0.0095421951 -0.024298072 0.028583016
-0.015020524 -0.025656965 0.025597911
0.015382552 -0.01784071 0.025052063
0.010257022 -0.017887689 0.027879082
0.00042186375 -0.021888673 0.028417356
-0.0097630527 -0.017887641 0.027877223
-0.014888056 -0.017840654 0.025049254
0.014607797 -0.012189217 0.023671623
0.0098740924 -0.012370978 0.026324041
0.0050468808 -0.012379631 0.028042842
0.00024690572 -0.012340412 0.028784513
-0.0045529413 -0.012379624 0.028041951
-0.009379833 -0.012370963 0.026322257
-0.014113047 -0.012189191 0.023668963
0.0093484037 -0.0075769275 0.024557069
0.0048196036 -0.0076375864 0.026103415
0.00024708244 -0.0075821914 0.026778564
-0.0043253135 -0.0076375864 0.026102569
-0.0088538174 -0.0075769201 0.024555381
0.0045752786 -0.0024955012 0.024770781
0.00024722004 -0.0025580972 0.025295999
-0.00408075 -0.0024955012 0.02476998
0.0043967953 0.0032633021 0.023931246
0.00024729199 0.0032916851 0.024517111
-0.0039021124 0.0032633021 0.023930475
0.00024733879 0.0085717179 0.024011787
0.0085962722 -0.044243377 0.019327052
-0.0081008784 -0.044243306 0.019325498
0.016233765 -0.041745272 0.019771151
0.012195395 -0.041629381 0.021130493
0.0057665808 -0.042314094 0.021143131
0.0002473949 -0.04099958 0.022334252
-0.0052715372 -0.042314038 0.021142108
-0.011700294 -0.041629296 0.021128278
-0.015738379 -0.041745204 0.01976819
0.018946284 -0.037329279 0.020146374
-0.018450983 -0.037329178 0.020142909
0.021287976 -0.029414825 0.019762531
0.017893039 -0.031670459 0.023008529
-0.017398255 -0.031670332 0.023005258
-0.020792557 -0.029414706 0.019758627
0.020316416 -0.023555364 0.020838223
-0.01982115 -0.023555279 0.020834504
0.019688291 -0.017421786 0.020597566
-0.019192968 -0.017421722 0.020593964
0.018709283 -0.011816353 0.019688882
-0.018213809 -0.011816334 0.01968546
0.015764078 -0.0071015731 0.020443233
-0.01526875 -0.0071015731 0.020440359
0.010918868 -0.0023242496 0.022274163
-0.010423871 -0.0023242496 0.022272184
0.010493858 0.0032732077 0.021617651
-0.0099987453 0.0032732002 0.021615751
0.012300279 0.0085408427 0.020160798
0.0063559813 0.008566726 0.022697944
-0.0038460968 0.0085880868 0.02335484
-0.0098404642 0.0085431002 0.021098679
0.010401769 0.013797928 0.020420965
0.0043754335 0.014055658 0.022629194
0.00024740212 0.013890345 0.023329362
-0.0038805087 0.014055658 0.02262843
-0.0099064335 0.013797913 0.020419082
0.0105158 0.018114347 0.01958029
0.004437455 0.018447962 0.021726113
0.00024748011 0.01827981 0.02239133
-0.003942363 0.018447962 0.021725338
-0.010020308 0.01811434 0.019578388
0.0086175092 0.02231155 0.019548213
0.0044745347 0.022495139 0.020762891
0.00024756673 0.022278581 0.021454204
-0.0039792638 0.022495132 0.020762108
-0.0081220139 0.022311542 0.019546662
0.0086373286 0.026146885 0.01845278
0.0045086667 0.027725372 0.019162264
0.00024775905 0.028539512 0.019380128
-0.0040131086 0.027725372 0.019161476
-0.0081416396 0.02614687 0.018451225
0.015044195 -0.049918499 0.013071703
-0.014547494 -0.049918499 0.013068961
0.019834233 -0.046772044 0.013255822
0.01610467 -0.047056761 0.015198913
0.01123229 -0.047846794 0.014909212
0.0058768466 -0.045822106 0.015157746
-0.0053806873 -0.045822054 0.015156699
-0.010735986 -0.047846764 0.014907176
-0.015608389 -0.047056749 0.015195975
-0.019337563 -0.046772033 0.013252193
0.022367198 -0.040838502 0.014917493
0.019118058 -0.041494481 0.017927025
0.00024792925 -0.043883294 0.016521232
-0.021058729 -0.041002452 0.015665919
0.023155868 -0.034414805 0.016310666
-0.021257548 -0.035204288 0.018089157
-0.024062077 -0.033625115 0.014523661
0.024211792 -0.027643558 0.01515341
-0.0237155 -0.027643453 0.01514896
0.023543831 -0.022255927 0.015454523
-0.023047568 -0.022255849 0.015450198
0.022751644 -0.016539458 0.015200568
-0.022255318 -0.01653941 0.015196399
0.021719849 -0.011146579 0.014637263
-0.021223424 -0.011146564 0.014633284
0.020292059 -0.0038130768 0.013878539
0.016825449 -0.0018810965 0.018056136
-0.016329678 -0.0018810965 0.018053062
-0.019795509 -0.0038130693 0.013874824
0.019205472 0.0037871301 0.013780401
0.01624787 0.0035130344 0.017795855
-0.015752049 0.0035130344 0.01779289
-0.018708898 0.0037871227 0.013776888
0.017473985 0.0083667748 0.015445088
-0.016977718 0.0083667673 0.015441896
0.017370846 0.013161901 0.014762914
-0.016874461 0.013161894 0.014759745
0.015872661 0.017457936 0.015674666
-0.015376447 0.017457921 0.015671778
0.015830852 0.023056474 0.014240447
0.012500281 0.02371433 0.017109059
-0.012004335 0.023714323 0.017106794
-0.015334372 0.023056466 0.01423756
0.01579809 0.027895387 0.013022374
0.010500049 0.028965261 0.016470708
0.0044911914 0.030164082 0.018161209
-0.0039954474 0.030164074 0.018160423
-0.01000399 0.028965268 0.016468812
-0.015301391 0.02789538 0.013019498
0.010303536 0.032926414 0.014612774
0.0055934163 0.03555214 0.014412614
0.00024800585 0.033720028 0.016717272
-0.0050969766 0.03555214 0.014411627
-0.009807134 0.032926407 0.014610911
0.00024825078 0.03690223 0.014072387
0.015483976 -0.05497463 0.0089330459
-0.015528766 -0.054977506 0.0088070845
0.016131058 -0.053303361 0.010745816
0.012524327 -0.052312721 0.010355163
-0.011968475 -0.052345868 0.01030797
-0.01540601 -0.053361978 0.010655142
0.021395938 -0.047594905 0.0098963799
0.018295202 -0.049295932 0.012050257
0.0094683943 -0.04921703 0.011317521
0.0055718236 -0.047156058 0.010260804
0.00024847058 -0.045666773 0.010634303
-0.0050747693 -0.04715601 0.010259817
-0.0089714266 -0.049216997 0.011315813
-0.017798314 -0.049295932 0.012046903
-0.020898644 -0.047594905 0.0098924488
0.025459968 -0.04263781 0.0095062423
0.023311716 -0.043026268 0.012582989
-0.022814939 -0.043026242 0.012578707
-0.024962619 -0.042637795 0.0095015606
0.026487064 -0.038095035 0.009759102
-0.025989776 -0.038094983 0.0097542312
0.026490459 -0.032609619 0.0098720351
-0.025993207 -0.032609552 0.0098671541
0.025880907 -0.026597735 0.0098883938
-0.025383631 -0.026597612 0.0098836357
0.02517307 -0.021249317 0.0096624102
-0.024675732 -0.021249242 0.0096577918
0.02434212 -0.015691109 0.0092468038
-0.023844687 -0.015691042 0.0092423391
0.023453692 -0.010447133 0.0087744193
-0.022956172 -0.010447118 0.0087701194
0.022609049 -0.0055790283 0.0083867554
-0.022111479 -0.0055790283 0.0083826128
0.021541514 0.0016725585 0.0086506903
-0.021043982 0.0016725585 0.0086467443
0.020923832 0.008297611 0.0087320469
-0.020426333 0.0082976036 0.0087282155
0.020983135 0.012407627 0.0083250813
-0.020485541 0.01240762 0.008321248
0.021106049 0.016219009 0.007719771
0.018738151 0.018658359 0.011602359
-0.018241173 0.018658329 0.011598933
-0.020608362 0.016219001 0.007715906
0.018651392 0.024029721 0.010428417
-0.018154215 0.024029713 0.010425007
0.01851292 0.02826177 0.009458039
-0.018015563 0.028261755 0.009454661
0.015315336 0.033260729 0.010827861
0.011839821 0.035638291 0.011812156
-0.011342901 0.035638291 0.011810008
-0.014818234 0.033260714 0.010825069
0.014216569 0.037269901 0.0076121041
0.011193031 0.038263794 0.0093302662
0.0051851356 0.039832857 0.0097597623
0.00024865917 0.040455554 0.0096652629
-0.0046878429 0.039832857 0.0097588478
-0.010695651 0.038263787 0.0093282387
-0.01371887 0.037269901 0.0076095155
0.015939971 -0.054975834 0.0049480097
-0.015547837 -0.054978356 0.0055251643
0.019694475 -0.053488351 0.0036456571
0.017264012 -0.052010961 0.0041504409
0.012324007 -0.051935449 0.0049232729
-0.011825793 -0.051935442 0.0049210358
-0.016304169 -0.052476726 0.0037789179
-0.019087875 -0.053569444 0.0041667689
0.024766129 -0.045878783 0.0058426107
0.022632772 -0.048136808 0.0038803369
0.0093732681 -0.049395453 0.0038907407
0.0063853767 -0.047640678 0.0051742783
0.00024897885 -0.045845229 0.0052279485
-0.0058873426 -0.047640637 0.0051731393
-0.0088749155 -0.049395427 0.0038890406
-0.022134362 -0.048136804 0.0038761757
-0.024268091 -0.045878775 0.0058380496
0.026455004 -0.042427 0.003809019
-0.025956606 -0.042426977 0.0038041407
0.027582344 -0.03774067 0.0050795726
-0.027084192 -0.037740614 0.0050744899
0.027344767 -0.032213256 0.0046272101
-0.026846524 -0.032213174 0.0046221809
0.026237858 -0.026038077 0.0042173294
-0.025739541 -0.02603798 0.0042125136
0.025364028 -0.020722061 0.003950173
-0.024865624 -0.020721987 0.0039455108
0.02453649 -0.015222695 0.0035353226
-0.024038 -0.015222657 0.003530822
0.023858527 -0.009804979 0.0031808489
-0.02335998 -0.0098049492 0.003176474
0.023351351 -0.0047400482 0.0030230321
-0.022852799 -0.0047400482 0.0030187508
0.022585321 0.0021109581 0.003507165
-0.02206883 0.0020928048 0.0035509982
0.022225033 0.008097779 0.0037525846
-0.021726605 0.0080977716 0.0037485121
0.022449216 0.011701915 0.003476107
-0.021950735 0.011701908 0.0034720022
0.022113549 0.018130612 0.0043494031
-0.021615228 0.018130604 0.0043453574
0.021647491 0.024462294 0.0039229714
-0.021149099 0.024462286 0.0039190128
0.02053934 0.02825452 0.0056045516
-0.02004127 0.028254513 0.0056007961
0.019693747 0.032435972 0.0040869247
0.017846487 0.034759026 0.0050782776
-0.017348321 0.034759026 0.0050750198
-0.019195395 0.032435957 0.0040833307
0.015847107 0.03813928 0.0028424351
0.01129561 0.040551212 0.0042949514
0.0071976539 0.040883932 0.0072839884
-0.006699902 0.040883932 0.0072827009
-0.010797305 0.040551204 0.0042929081
-0.015348536 0.038139272 0.0028395448
0.02714351 0.04674029 0.0020995601
0.022407798 0.045352999 0.0024204929
0.005123348 0.042653676 0.0042245393
0.00024913345 0.04307789 0.0045470027
-0.0046250252 0.042653676 0.0042236401
-0.021909185 0.04535294 0.0024164147
-0.02664485 0.04674023 0.0020946041
0.031962082 0.052968156 0.0025849892
0.027426831 0.049947236 0.0027543395
0.023020618 0.050262686 0.0021076566
-0.022521963 0.050262626 0.0021034726
-0.026928304 0.049947161 0.0027493304
-0.031463534 0.052968096 0.0025791405
0.035690196 0.058370616 0.0024523693
0.032121968 0.055779476 0.0029999884
0.026993066 0.05464955 0.0024707103
-0.026494488 0.054649506 0.0024657906
-0.031623516 0.055779394 0.0029941178
-0.035191644 0.058370594 0.0024458286
0.03648996 0.061044525 0.0022159233
0.033253457 0.060241167 0.002500908
-0.032754902 0.060241085 0.0024948209
-0.035991374 0.061044436 0.0022092345
0.019747535 -0.054967418 -0.0013166741
0.017205242 -0.054967418 -0.00085612759
0.020277664 -0.053698119 -0.00042613409
0.016178202 -0.052436292 -0.0010483358
0.012492643 -0.050031219 0.00048144255
-0.011993607 -0.050031211 0.00047916546
-0.015984155 -0.053329624 -0.0010495223
-0.019622179 -0.053970106 -0.00042741653
0.021584651 -0.047801748 -0.0010157702
0.010260125 -0.048336163 -0.0010775784
0.0058267396 -0.045769863 -0.00046778284
0.0002494771 -0.044928517 -0.00013768021
-0.0053276876 -0.045769811 -0.0004688194
-0.0097608538 -0.048336126 -0.0010794466
-0.021085333 -0.04780174 -0.0010197377
0.025430372 -0.042836733 -0.0010437667
-0.024931079 -0.042836703 -0.0010484606
0.02680284 -0.038078345 -0.00060064159
-0.026303628 -0.038078286 -0.00060558133
0.027060324 -0.032308117 0.00034218561
-0.026561296 -0.032308027 0.00033719931
0.025780847 -0.026175356 -0.00042342767
-0.025281651 -0.026175266 -0.00042815879
0.024446564 -0.020863455 -0.00055063237
-0.023947326 -0.020863365 -0.00055511575
0.0235301 -0.015524171 -0.0011877362
-0.023030743 -0.015524138 -0.0011920501
0.023325432 -0.0090916418 -0.0024901181
-0.022825819 -0.009091638 -0.0024943855
0.023315646 -0.0040970407 -0.0011804402
-0.022714134 -0.0042062588 -0.0010593617
0.023257768 0.00051766261 -0.00099066179
-0.022758465 0.00051766261 -0.00099490769
0.022276703 0.0061084628 -0.0016138721
-0.021775987 0.006109152 -0.0015669288
0.022620684 0.010807928 -0.0014675129
-0.022121286 0.01080792 -0.0014716499
0.023047954 0.017092373 -0.0017087646
-0.022548515 0.017092366 -0.0017129844
0.022527227 0.024028596 -0.0018052887
-0.022027791 0.024028581 -0.0018094154
0.021631854 0.029391382 -0.001050882
-0.02113254 0.029391374 -0.0010548411
0.020025229 0.03450821 -0.0019431803
0.018676728 0.036062632 -0.00028941594
-0.018177565 0.036062617 -0.00029282505
-0.019525757 0.034508187 -0.0019468423
0.022091836 0.039027054 -0.00094871875
0.016364018 0.039260212 0.00069295382
0.012597067 0.040918346 -0.0019727675
-0.012097597 0.040918339 -0.0019750539
-0.015865048 0.039260197 0.00068997918
-0.021592587 0.039027017 -0.00095274579
0.027916396 0.044084545 -0.0013758037
0.021693457 0.044536617 0.0017681196
0.016303327 0.044244874 -0.0011721952
0.0087631894 0.042590972 -0.0012592776
0.0047227805 0.043537598 -0.00095095858
0.00024962332 0.043968726 -0.00083670206
-0.0042235032 0.043537591 -0.00095178559
-0.0082638552 0.042590972 -0.0012608552
-0.015804039 0.04424483 -0.0011751465
-0.019777866 0.044943701 0.0017937403
-0.026739361 0.044012051 -0.00076371152
0.032754209 0.050386015 -0.00055203307
0.021531427 0.052139375 -0.0011951262
0.018943356 0.048980135 -0.0015228894
-0.018444009 0.048980106 -0.0015263213
-0.021032153 0.052139301 -0.0011990387
-0.032255076 0.050385926 -0.00055802427
0.036592223 0.056719285 -0.0011675339
0.035319742 0.054972846 0.0010845424
0.026996404 0.057704184 -0.00034611765
0.024270041 0.055049885 -0.00080113579
-0.023770848 0.055049833 -0.00080555584
-0.026497306 0.05770414 -0.00035104714
-0.035880994 0.056428116 -0.00079885498
0.037741859 0.062173884 -0.00044208765
0.032821994 0.062251654 -0.00079395343
0.029588576 0.059993576 1.9617379e-005
-0.029089551 0.059993479 1.4211982e-005
-0.032322828 0.062251601 -0.00079996139
-0.0372428 0.06217381 -0.00044900831
0.038319748 0.064709947 0.00023244228
-0.037820827 0.064709872 0.00022541638
0.019814437 -0.054967418 -0.0044739628
0.017545464 -0.054967418 -0.005013546
0.020264767 -0.05428879 -0.0054884739
0.017540172 -0.054262139 -0.0061036283
-0.017040465 -0.054335095 -0.005994061
-0.019714596 -0.05436419 -0.0053794468
0.016675334 -0.04706984 -0.0050391126
0.012185444 -0.04604926 -0.0061771777
0.008222674 -0.045049496 -0.0050669843
-0.0077227429 -0.045049444 -0.0050684707
-0.011685234 -0.046049219 -0.0061794063
-0.016175285 -0.047069818 -0.0050421739
0.022852415 -0.041567158 -0.0053967843
0.017516628 -0.041663066 -0.0085858414
0.0046138065 -0.042287122 -0.0070336126
0.00024990179 -0.043133426 -0.0046757124
-0.0041135559 -0.042287078 -0.0070344219
-0.017015947 -0.041663021 -0.00858906
-0.022352319 -0.041567117 -0.0054009948
0.02233744 -0.034207985 -0.0074036429
-0.021836976 -0.034207903 -0.0074077519
0.025878487 -0.032891452 -0.0034202021
-0.025378751 -0.032891378 -0.0034249611
0.023369305 -0.02704717 -0.0056226179
-0.02286916 -0.027047087 -0.0056269122
0.021279428 -0.020307992 -0.0065979706
-0.020779075 -0.020307925 -0.006601871
0.02196403 -0.014435582 -0.0055109868
-0.021463875 -0.014435563 -0.0055150017
0.022608306 -0.0081162192 -0.0072885612
-0.021893902 -0.0083639547 -0.0074797608
0.023822179 -0.0046713278 -0.007165282
-0.023159439 -0.0048192926 -0.0063696848
-0.024089316 -0.0026665069 -0.0068242056
0.023560576 0.00120176 -0.0059906198
-0.022920102 0.0011146329 -0.0043431483
-0.024255769 0.0013903342 -0.0070209876
0.02203266 0.0072851069 -0.0066217668
-0.022357695 0.0064567327 -0.0067482786
0.022830291 0.012562957 -0.0065255715
-0.022329962 0.012562942 -0.0065297503
0.023130573 0.018367965 -0.0069854232
-0.022630159 0.018367957 -0.0069896579
0.022285771 0.023546364 -0.0071877493
-0.021785324 0.023546349 -0.0071918285
0.021488126 0.029174615 -0.0057252217
-0.020987947 0.0291746 -0.0057291528
0.019704392 0.033925008 -0.0058382414
0.018088287 0.036108639 -0.0065968661
-0.017587963 0.036108632 -0.0066001667
-0.019204205 0.033925001 -0.0058418429
0.02141466 0.0393066 -0.0063011711
0.016019803 0.039866786 -0.0069517903
0.011900062 0.0408695 -0.0066442443
-0.01139973 0.0408695 -0.0066463975
-0.015519425 0.039866779 -0.0069546951
-0.020914409 0.03930657 -0.006305065
0.027128832 0.044744957 -0.006048983
0.022094177 0.045040336 -0.0080347322
0.017306725 0.044530284 -0.0062691821
0.0084783016 0.042569909 -0.0058549745
0.0045258636 0.043451887 -0.0060241213
0.00025011413 0.043909367 -0.0061330078
-0.0040256474 0.043451887 -0.0060249092
-0.0079781162 0.042569909 -0.0058564991
-0.016806493 0.044530246 -0.0062723206
-0.021593621 0.045040306 -0.0080387481
-0.026628662 0.044744883 -0.0060539348
0.032076128 0.050975781 -0.0050075706
0.027516633 0.049980354 -0.0074391421
0.021719173 0.050231036 -0.0063236263
-0.021218942 0.050231006 -0.0063275676
-0.027016217 0.049980287 -0.0074441629
-0.031576168 0.050975684 -0.0050134417
0.032884583 0.056001682 -0.0054294365
0.02703123 0.056086075 -0.0051742615
-0.026531231 0.056086 -0.0051791929
-0.032384556 0.056001622 -0.0054354612
0.036274314 0.059043843 -0.0036070785
0.033325806 0.060295302 -0.0041159503
-0.032826029 0.060295235 -0.0041220542
-0.035774656 0.059043784 -0.0036137272
0.011082744 -0.041903876 -0.0096444702
0.0080241542 -0.039711706 -0.01121278
0.00025030016 -0.040690042 -0.0089194318
-0.0075230924 -0.039711654 -0.011214227
-0.010581947 -0.041903801 -0.0096464911
0.016556766 -0.036990419 -0.010080238
0.01063994 -0.035938531 -0.012370161
0.0050358949 -0.037391409 -0.01220202
0.00025064754 -0.036956333 -0.012282613
-0.0045346236 -0.037391357 -0.012202908
-0.01013862 -0.035938457 -0.012372094
-0.016055837 -0.036990348 -0.01008327
0.019476408 -0.028804949 -0.0091685737
0.016732719 -0.030461922 -0.010687641
0.013630825 -0.032487899 -0.011948225
0.0082395216 -0.031320259 -0.013995954
-0.0077378638 -0.031320184 -0.013997435
-0.013129546 -0.032487847 -0.011950704
-0.016231658 -0.030461855 -0.010690696
-0.018975612 -0.028804857 -0.009172135
0.016888972 -0.023668289 -0.010671585
0.01171364 -0.025811799 -0.013530639
-0.011212022 -0.025811765 -0.013532762
-0.016387882 -0.023668226 -0.010674668
0.016295062 -0.018929474 -0.011665934
-0.015793776 -0.018929426 -0.011668905
0.020442627 -0.012805551 -0.011642081
0.016181912 -0.014461461 -0.012500024
-0.015680457 -0.014461461 -0.01250296
-0.019384108 -0.013817232 -0.0089972401
0.025003092 -0.0077376775 -0.014096643
0.021574322 -0.010108396 -0.010154388
0.016457533 -0.01006585 -0.012302843
0.013285496 -0.007013917 -0.013503556
-0.016565464 -0.0098008253 -0.013018631
-0.020832609 -0.0096297339 -0.011085314
-0.025305912 -0.0078785643 -0.013326897
0.024832213 -0.0038738176 -0.012418563
0.024450399 -0.0040435418 -0.0096256295
-0.026529551 -0.0032553151 -0.010212866
-0.029634861 -0.0024871379 -0.013784477
0.023083132 0.0015747696 -0.012182218
0.015922308 0.0040397607 -0.014091109
-0.026797365 0.0018149689 -0.01058592
0.020259371 0.008001525 -0.011013987
0.017834166 0.0056999959 -0.012910095
-0.017002676 0.0057091936 -0.013407868
-0.020327577 0.007057596 -0.011353287
-0.025746349 0.0050871558 -0.012215865
0.022542626 0.013320062 -0.011844377
-0.022041313 0.013320047 -0.011848497
0.022839623 0.017848585 -0.011148493
-0.022338439 0.017848577 -0.011152674
0.021306807 0.023021121 -0.012059405
-0.020805461 0.023021113 -0.012063301
0.020412836 0.028607894 -0.010425919
-0.019911785 0.028607879 -0.010429646
0.019386644 0.032908779 -0.0088976277
0.017607102 0.034026664 -0.011848518
-0.017105797 0.034026649 -0.011851731
-0.018885897 0.032908756 -0.0089011742
0.014909287 0.037812706 -0.010512535
0.011130712 0.039968174 -0.011671991
0.0060124258 0.041819211 -0.012243888
-0.0055110655 0.041819211 -0.012244957
-0.010629448 0.039968181 -0.011674006
-0.014408238 0.037812706 -0.010515246
0.0040781451 0.042785045 -0.01023439
0.00025056885 0.043019693 -0.011039912
-0.0035771518 0.042785045 -0.0102351
0.0050381487 -0.031893559 -0.014380631
0.00025089248 -0.032157309 -0.014634519
-0.0045364108 -0.031893514 -0.01438152
0.0088315327 -0.024107384 -0.014972202
0.0056352671 -0.025663275 -0.015677765
0.00025104801 -0.026690323 -0.016117591
-0.0051332535 -0.025663249 -0.01567876
-0.0083296485 -0.024107335 -0.014973794
0.010675604 -0.019751344 -0.014852419
0.0047198543 -0.019620448 -0.016750917
0.00025116443 -0.019684188 -0.017278474
-0.004217627 -0.019620441 -0.016751744
-0.010173731 -0.019751318 -0.014854352
0.024654901 -0.013172217 -0.019425545
0.021806937 -0.01403394 -0.017067418
0.017075354 -0.012799937 -0.016877603
0.010786669 -0.015284702 -0.01536503
0.004748024 -0.013933163 -0.017245129
0.00025121099 -0.014043745 -0.017779749
-0.0042457059 -0.013933159 -0.017245963
-0.010284692 -0.015284691 -0.015366982
0.025342304 -0.0080427863 -0.018049669
0.024398066 -0.011762351 -0.016044136
0.015044828 -0.011001293 -0.016144831
0.011402344 -0.0085437857 -0.01607259
0.0045763906 -0.008624129 -0.017296121
0.00025121239 -0.0087355003 -0.01779303
-0.0040740669 -0.008624129 -0.017296925
-0.010153463 -0.0089035742 -0.015969142
-0.016108193 -0.0087458417 -0.015252677
-0.021852875 -0.0080882087 -0.017008308
-0.027473787 -0.0072953701 -0.017236087
0.02514242 -0.0053791553 -0.015731037
0.024098197 -0.0020198375 -0.016392995
0.011337659 -0.0029846095 -0.016440298
0.0062358128 -0.0035625957 -0.016838551
0.0011584803 -0.003451176 -0.017136946
-0.0046548918 -0.0031674393 -0.01689421
-0.010831867 -0.0033112094 -0.016543504
-0.015170937 -0.0050014257 -0.016812835
-0.019911312 -0.0051219352 -0.019399077
-0.031015858 -0.0045515224 -0.017216686
0.022021698 0.00096813962 -0.017238665
0.016491396 0.0024791174 -0.016130421
0.010573668 0.0015532002 -0.016211018
0.0052233879 0.0017779693 -0.017647188
0.001162491 0.00055656582 -0.017096926
-0.0042733853 0.0014886037 -0.017474283
-0.010486604 0.0018694922 -0.016525604
-0.015228141 0.0032626726 -0.016812153
-0.029344125 0.0022224225 -0.014600835
-0.031795893 0.000537429 -0.017865736
0.016274292 0.0076097883 -0.016838487
0.012271361 0.0055171698 -0.018293228
-0.011768852 0.0055171549 -0.018295448
-0.01577205 0.0076097734 -0.016841453
-0.020720737 0.0060910396 -0.017641772
-0.026066773 0.0060109086 -0.017169241
-0.029551325 0.0050433241 -0.019159265
0.020450188 0.013350185 -0.016511768
0.019047298 0.010170672 -0.016661357
-0.018545087 0.010170665 -0.016664833
-0.019948009 0.013350178 -0.016515508
0.020684538 0.017386068 -0.01667634
0.018611712 0.019482572 -0.018679153
-0.018109139 0.019482564 -0.018682554
-0.020182336 0.017386053 -0.016680118
0.020000245 0.022416558 -0.015342572
0.017568268 0.023218755 -0.018207699
-0.017065788 0.023218755 -0.018210895
-0.019498279 0.022416558 -0.01534623
0.016997954 0.028616879 -0.016617846
-0.016495762 0.028616879 -0.016620941
0.015127185 0.033763777 -0.016108274
0.010327448 0.035685379 -0.018891089
-0.0098248422 0.035685379 -0.018892955
-0.014625099 0.033763777 -0.016111027
0.0098640108 0.038516287 -0.015887674
0.004733745 0.039953966 -0.016686194
0.0002511316 0.040365752 -0.01711433
-0.0042315582 0.039953951 -0.016687021
-0.0093619656 0.038516287 -0.015889455
0.025225151 -0.012132391 -0.023739222
0.022182707 -0.015421074 -0.023040406
0.017841276 -0.013539966 -0.022562861
0.025159545 -0.0097481124 -0.022518184
0.023785627 -0.0064143799 -0.023918051
0.014754142 -0.010501679 -0.022710267
0.012965275 -0.0075364485 -0.022202734
-0.023835236 -0.0066216514 -0.01991117
-0.027809529 -0.0069024228 -0.020802647
0.022480296 -0.0029047467 -0.021630425
0.016151158 -0.0031990297 -0.024063244
0.012648014 -0.0045963973 -0.021717347
-0.021339573 -0.0028945804 -0.021318953
-0.026949396 -0.0032486692 -0.023672737
-0.032501735 -0.0042155348 -0.022859428
-0.034886926 -0.0019058473 -0.023557775
0.018256716 -0.00093047321 -0.022040803
0.0032278926 0.0030578263 -0.020347681
0.00025146105 0.0029327124 -0.020576119
-0.0027250038 0.0030578263 -0.020348236
-0.020588063 0.0023998469 -0.021979135
-0.024426125 0.002257701 -0.024632599
-0.033374019 0.0018474385 -0.022600055
-0.034947909 4.5076013e-007 -0.024998125
0.010927339 0.0075251795 -0.021385219
0.0051021809 0.0062923133 -0.023312453
0.00025169109 0.0047503784 -0.023058083
-0.004598747 0.0062923133 -0.023313355
-0.010424263 0.0075251646 -0.021387197
-0.023697028 0.0058515742 -0.021219134
-0.027291948 0.005764991 -0.023121029
-0.030854367 0.0047951974 -0.021625862
0.016525725 0.012435246 -0.020287324
0.01193552 0.011913378 -0.023447368
-0.01143206 0.01191337 -0.023449529
-0.016022842 0.012435246 -0.020290338
0.016063318 0.017918754 -0.02121276
0.013075753 0.017734896 -0.023554094
-0.012572277 0.017734889 -0.023556467
-0.015560275 0.017918739 -0.021215688
0.015011788 0.022555832 -0.02075354
0.010630069 0.022633094 -0.02360408
0.0059432434 0.025960442 -0.024578813
-0.0054395879 0.025960442 -0.02457986
-0.010126587 0.022633094 -0.023606002
-0.014508834 0.022555824 -0.020756274
0.010424404 0.029326055 -0.021989327
0.004663826 0.029843327 -0.023903068
0.00025183382 0.030089196 -0.024599459
-0.0041602962 0.029843327 -0.023903888
-0.0099212239 0.029326048 -0.021991201
0.01038417 0.032858547 -0.020827461
0.0047634551 0.035067502 -0.021588311
0.00025170273 0.033771697 -0.023276947
-0.0042603542 0.035067495 -0.021589145
-0.0098812096 0.032858547 -0.020829339
0.000251499 0.03692716 -0.021079864
0.024963889 -0.013533819 -0.026804123
0.022716863 -0.015423641 -0.028478991
0.017959787 -0.012724414 -0.027335387
0.024701912 -0.0112499 -0.027068142
0.022638857 -0.0086953156 -0.028486855
0.01641068 -0.00945279 -0.028963197
0.021457843 -0.0048801526 -0.025921591
0.017062003 -0.005599007 -0.027264971
-0.028945738 -0.00098451227 -0.025839213
-0.033124305 -0.0025910027 -0.026216354
-0.035071768 -0.0028579161 -0.026320107
-0.027832314 0.0030613169 -0.026806731
-0.032679327 0.0016643181 -0.027709018
-0.034923695 -0.00037665665 -0.026759353
0.00025188783 0.0072290674 -0.025182124
-0.028114436 0.0047513843 -0.026937593
-0.030184064 0.0049084537 -0.026329473
0.0054427348 0.011498149 -0.026633199
0.00025211577 0.011499744 -0.027643006
-0.0049386863 0.011498157 -0.026634157
0.010042094 0.017833393 -0.025753975
0.005502034 0.017848875 -0.028081082
0.00025228783 0.017580945 -0.029500358
-0.0049977181 0.017848875 -0.02808205
-0.0095382109 0.017833393 -0.025755789
0.0045720534 0.021840218 -0.02689838
0.00092137465 0.022424642 -0.027431611
-0.0037393933 0.022012975 -0.026801236
0.0030735165 0.026143078 -0.025208946
0.00025192299 0.026231002 -0.025562286
-0.0025697353 0.026143078 -0.025209468
0.021670608 -0.013780404 -0.031405758
0.018767001 -0.01233004 -0.031828865
0.020716995 -0.01069659 -0.03158408
0.017717049 -0.010295425 -0.03138933
