# .PCD v0.7 - Point Cloud Data file format
VERSION 0.7
FIELDS x y z
SIZE 4 4 4
TYPE F F F
COUNT 1 1 1
WIDTH 553
HEIGHT 1
VIEWPOINT 0 0 0 1 0 0 0
POINTS 553
DATA ascii
-0.00074048189 -0.041759074 1.276
0.002766585 -0.041922685 1.281
0.013275598 -0.041856818 1.279
0.016701231 -0.041660208 1.273
-0.0042101089 -0.044970758 1.268
-0.014617972 -0.076161221 1.2670001
-0.014686731 -0.08000651 1.273
-0.014755464 -0.083884314 1.279
-0.014835711 -0.087862931 1.286
-0.011084616 -0.086086988 1.2600001
-0.014812106 -0.091239952 1.284
-0.01111061 -0.089748181 1.263
0.002734774 -0.10736322 1.2670001
-0.018132987 -0.065910026 1.2700001
-0.018118208 -0.069332689 1.2690001
-0.018131958 -0.072864346 1.2700001
-0.014549189 -0.072348461 1.261
-0.018274173 -0.076942161 1.2800001
0.019967038 -0.041201733 1.2590001
-0.00073002314 -0.04461614 1.258
-0.018062072 -0.062186651 1.2650001
-0.014480786 -0.065132007 1.2550001
-0.01450346 -0.068677522 1.2570001
-0.010971342 -0.074959382 1.2470001
-0.010997387 -0.078561395 1.25
-0.011023415 -0.082179509 1.253
-0.0075725671 -0.088824749 1.25
0.047425736 -0.09267585 1.256
0.0510263 -0.092969157 1.2600001
0.055080898 -0.094000146 1.274
0.047574963 -0.096417867 1.2600001
0.051550802 -0.097410724 1.273
0.04757309 -0.099864356 1.2600001
0.052034702 -0.10184377 1.2850001
0.051992096 -0.10527615 1.284
0.051625505 -0.10802487 1.2750001
0.051420838 -0.11107375 1.2700001
0.0062041013 -0.11082779 1.2670001
-0.014569312 -0.093203552 1.263
-0.00072674663 -0.10274998 1.253
0.0027068283 -0.10283195 1.2540001
0.0061164862 -0.10242176 1.2490001
-0.0076316334 -0.10676973 1.2600001
-0.0042243525 -0.10787157 1.273
-0.00073947554 -0.10804116 1.2750001
0.0061554029 -0.10651565 1.2570001
-0.014589396 -0.11065174 1.2650001
-0.00075104245 -0.11327728 1.2950001
0.0027648716 -0.1120526 1.281
0.0096124439 -0.11012767 1.2590001
0.012976932 -0.10942739 1.251
0.0027733811 -0.11591605 1.2850001
0.0062380987 -0.11492357 1.274
0.0096578207 -0.11411136 1.2650001
0.01304896 -0.11347939 1.258
0.0027775699 -0.11961503 1.2870001
0.0062622926 -0.11887129 1.279
0.0097260838 -0.11840621 1.274
0.013131339 -0.11766217 1.266
0.016545171 -0.11728971 1.2620001
0.0027795967 -0.1232288 1.2880001
0.0062717889 -0.12255885 1.281
0.0097485268 -0.12217578 1.2770001
0.013203321 -0.12179252 1.273
0.016649269 -0.1215048 1.2700001
0.020062869 -0.12112122 1.266
0.0097938562 -0.12625648 1.2830001
0.013285653 -0.12605909 1.281
0.01680577 -0.12615676 1.2820001
0.043781493 -0.08197391 1.25
0.047276437 -0.088955358 1.2520001
0.054520849 -0.089591116 1.261
-0.010995842 -0.0922447 1.25
0.0060973894 -0.095282421 1.245
0.0095147723 -0.095358655 1.2460001
0.0061020451 -0.098767564 1.2460001
0.0095220301 -0.098846518 1.2470001
-0.0041448856 -0.10242188 1.2490001
0.0095365085 -0.1058374 1.2490001
0.040136401 -0.071309611 1.243
0.043575473 -0.071365751 1.2440001
0.040264342 -0.074952573 1.2470001
0.043749295 -0.075071484 1.2490001
0.046980646 -0.074769564 1.2440001
0.040198494 -0.078240052 1.245
0.043747913 -0.078490071 1.2490001
0.046979167 -0.078174412 1.2440001
0.054007534 -0.078485362 1.2490001
0.040068027 -0.081385113 1.2410001
0.047128674 -0.08184123 1.248
0.050464701 -0.081708446 1.2460001
0.054178722 -0.082165726 1.253
0.043639906 -0.085121311 1.2460001
0.047202587 -0.085392982 1.25
0.050543983 -0.085254654 1.248
0.054393061 -0.085935958 1.258
0.043568309 -0.088388585 1.2440001
0.050704189 -0.088953584 1.2520001
-0.021646068 -0.066013284 1.2720001
-0.021611437 -0.069386765 1.2700001
-0.021627823 -0.07292112 1.271
-0.02183136 -0.077121869 1.2830001
-0.0075304313 -0.084925823 1.243
-0.0041189804 -0.08818543 1.2410001
-0.00753594 -0.091802284 1.2440001
-0.0041188281 -0.091581106 1.2410001
-0.00071929226 -0.091507398 1.24
0.0026747684 -0.09143357 1.2390001
-0.00071868463 -0.09482345 1.2390001
0.0026833003 -0.095129535 1.243
0.012916842 -0.09528169 1.245
0.0026853529 -0.098609202 1.2440001
0.012926703 -0.098766781 1.2460001
0.009514004 -0.10217541 1.2460001
0.036529265 -0.057372641 1.2360001
0.032982003 -0.060463116 1.23
0.03652836 -0.060757168 1.2360001
0.03984908 -0.060657881 1.2340001
0.046721548 -0.060803145 1.2370001
0.036527403 -0.064141437 1.2360001
0.039912626 -0.064140417 1.2360001
0.043227624 -0.064035513 1.2340001
0.046758093 -0.064241879 1.238
0.05031028 -0.064448148 1.2420001
0.053884156 -0.064654313 1.2460001
0.03649684 -0.067470804 1.235
0.04004069 -0.067742884 1.24
0.043436609 -0.067741707 1.24
0.046907887 -0.067849711 1.2420001
0.050349399 -0.06790296 1.243
0.053882681 -0.068065383 1.2460001
0.036466233 -0.070794426 1.2340001
0.046906535 -0.071249679 1.2420001
0.050307449 -0.071248248 1.2420001
0.053837884 -0.071418807 1.245
0.03649468 -0.074232474 1.235
0.050346438 -0.074707963 1.243
0.053879507 -0.074886665 1.2460001
0.03646398 -0.077550016 1.2340001
0.050344855 -0.078110002 1.243
0.036433227 -0.080861747 1.233
0.039840654 -0.084302984 1.2340001
0.026301013 -0.087613307 1.233
0.019625863 -0.091357656 1.238
0.023034919 -0.091430664 1.2390001
0.02636403 -0.091208346 1.2360001
0.016300265 -0.095128044 1.243
0.019688519 -0.095050819 1.2420001
0.023071216 -0.09497346 1.2410001
0.026427008 -0.094819434 1.2390001
0.023416819 -0.037752401 1.2590001
-0.007569083 -0.047718085 1.2490001
-0.0041369833 -0.047603592 1.2460001
-0.021374885 -0.058304228 1.256
-0.014354239 -0.061154716 1.2440001
-0.010875209 -0.067530528 1.2360001
-0.010918885 -0.071201362 1.2410001
-0.0074761645 -0.08093369 1.2340001
-0.00071641855 -0.08775916 1.235
0.0060584429 -0.091285825 1.2370001
-0.0074582361 -0.077367567 1.2310001
-0.0040859361 -0.084106147 1.2310001
0.0094234999 -0.09106414 1.2340001
0.012803209 -0.091063716 1.2340001
-0.014291913 -0.094822273 1.2390001
-0.010863474 -0.094516635 1.235
-0.0074811308 -0.094516993 1.235
-0.004102075 -0.094593748 1.2360001
-0.0041019125 -0.097974993 1.2360001
-0.00071923609 -0.098292165 1.24
0.016299618 -0.098528393 1.243
-0.0075168707 -0.10176561 1.2410001
0.043338612 -0.043866221 1.2370001
0.036236115 -0.046835631 1.2260001
0.043232672 -0.04713966 1.2340001
0.04676355 -0.047291562 1.238
0.032984324 -0.050357956 1.23
0.036412701 -0.050439101 1.2320001
0.039658111 -0.050274525 1.228
0.04316172 -0.050437406 1.2320001
0.046724819 -0.050641149 1.2370001
0.029421646 -0.053377844 1.222
0.033064045 -0.053857621 1.233
0.036441453 -0.053856831 1.233
0.039689537 -0.053681251 1.2290001
0.04316077 -0.053811349 1.2320001
0.04668602 -0.053985037 1.2360001
0.050192472 -0.054114968 1.2390001
0.033009637 -0.057141386 1.2310001
0.039785482 -0.057186048 1.2320001
0.043159764 -0.057185054 1.2320001
0.046684928 -0.057369631 1.2360001
0.050150793 -0.057461303 1.238
0.043193724 -0.060607668 1.233
0.050230566 -0.06094937 1.24
0.053799063 -0.061144661 1.2440001
0.032900698 -0.063675329 1.2270001
0.03284616 -0.066925459 1.225
0.032737963 -0.070049636 1.2210001
0.032736972 -0.073392041 1.2210001
0.032789554 -0.076859832 1.223
0.029414991 -0.080142558 1.222
0.032895714 -0.080469422 1.2270001
0.026109966 -0.083624393 1.2240001
0.029510265 -0.083760068 1.2260001
0.032867774 -0.083758973 1.2260001
0.02286844 -0.087401025 1.23
0.029605487 -0.087399118 1.23
0.016195979 -0.091136962 1.235
0.0026909471 -0.044190537 1.2460001
0.0060363472 -0.04369393 1.2320001
-0.00071434112 -0.047030561 1.2310001
-0.014321208 -0.044012666 1.2410001
-0.011061803 -0.044580348 1.2570001
-0.0076783136 -0.044935182 1.2670001
-0.010894389 -0.047297645 1.238
-0.017676998 -0.057469133 1.238
-0.010787805 -0.06027016 1.2260001
-0.010849113 -0.063990586 1.233
-0.0074342382 -0.073757447 1.2270001
-0.0074041677 -0.070111521 1.222
-0.0040463791 -0.076613553 1.2190001
-0.0040562027 -0.080146842 1.222
-0.0007089026 -0.08349131 1.222
0.0026511198 -0.087261692 1.228
0.023231488 -0.030608952 1.2490001
0.02633344 -0.030241035 1.2340001
0.026247721 -0.033512786 1.23
0.022802658 -0.040121417 1.2260001
0.039563507 -0.04008602 1.225
0.043374415 -0.04051071 1.238
0.0093661202 -0.043480996 1.2260001
0.012683731 -0.043338921 1.222
0.016031845 -0.043338653 1.222
0.019332316 -0.043231938 1.2190001
0.036029913 -0.043229368 1.2190001
0.039691985 -0.043583285 1.2290001
0.046802219 -0.043936308 1.2390001
0.0026369046 -0.046648491 1.2210001
0.029230285 -0.046378512 1.2140001
0.032743651 -0.046645306 1.2210001
0.03965893 -0.046911273 1.228
0.025839964 -0.049581323 1.2110001
0.02939822 -0.049990151 1.2210001
0.050234079 -0.050762929 1.24
0.025818054 -0.0528543 1.21
0.029324651 -0.056538694 1.2180001
0.029275775 -0.05977571 1.2160001
0.029226853 -0.063001513 1.2140001
0.029250123 -0.066380009 1.215
0.029201128 -0.069591589 1.2130001
-0.0074113668 -0.050074629 1.223
-0.0040505733 -0.049951922 1.22
-0.01780735 -0.040809207 1.2470001
-0.014483028 -0.041071296 1.2550001
-0.014090135 -0.046647917 1.2210001
-0.010718167 -0.049869712 1.2180001
-0.024519874 -0.054208755 1.2410001
-0.020898866 -0.053641412 1.228
-0.014123815 -0.056819621 1.2240001
-0.01070008 -0.056448553 1.2160001
-0.0073441872 -0.059582148 1.212
-0.0073561133 -0.063004762 1.2140001
-0.0073680282 -0.066438057 1.2160001
-0.0040365495 -0.07309638 1.2160001
0.025948578 -0.03646262 1.2160001
0.022541866 -0.04298329 1.212
0.0059382399 -0.046304557 1.212
0.0092437081 -0.046227999 1.21
0.012538176 -0.04615137 1.2080001
0.015874105 -0.046227489 1.21
0.019173354 -0.046188943 1.2090001
0.022467038 -0.046150316 1.2080001
0.025797822 -0.046188042 1.2090001
-0.00070272066 -0.049583476 1.2110001
0.0026044564 -0.049378734 1.2060001
0.019077806 -0.049254738 1.2030001
0.022429375 -0.049377125 1.2060001
-0.0073384843 -0.052900098 1.2110001
-0.0040139635 -0.052812863 1.2090001
0.022410283 -0.052636445 1.205
-0.0073322519 -0.056170244 1.21
0.025753437 -0.056028739 1.207
0.025752798 -0.059333991 1.207
0.02575212 -0.062638976 1.207
0.025794078 -0.066052981 1.2090001
-0.0040233932 -0.069537945 1.212
0.025814665 -0.069420286 1.21
-0.017492874 -0.04344492 1.225
-0.013974446 -0.049582846 1.2110001
-0.017391833 -0.053205024 1.2180001
-0.013997216 -0.052986976 1.2130001
-0.010656334 -0.052899897 1.2110001
-0.00069806288 -0.052550815 1.2030001
-0.0039972686 -0.055891849 1.2040001
-0.0039970637 -0.062485933 1.2040001
-0.0040069115 -0.065946482 1.207
-0.00070029183 -0.069251142 1.207
-0.00070143089 -0.072675668 1.2090001
0.0026082948 -0.072615527 1.2080001
-0.00070256897 -0.07611084 1.2110001
0.002610371 -0.075985104 1.2090001
-0.00070428604 -0.079622231 1.2140001
0.047382381 -0.10290045 1.2550001
0.026571898 -0.10898654 1.2460001
0.030007429 -0.10907277 1.2470001
0.016427932 -0.11302768 1.253
0.02661336 -0.11257374 1.248
0.030078281 -0.11275287 1.25
0.051378071 -0.11445563 1.2690001
0.019937033 -0.1169171 1.258
0.023325497 -0.11663729 1.2550001
0.026740083 -0.11654318 1.2540001
0.030197211 -0.11663481 1.2550001
0.033659685 -0.11672625 1.256
0.036979817 -0.11635288 1.2520001
0.047525078 -0.11699753 1.2590001
0.051659126 -0.118575 1.276
0.023491662 -0.12092885 1.2640001
0.026909405 -0.12073629 1.2620001
0.030340146 -0.12063925 1.261
0.033818889 -0.1207334 1.2620001
0.037243895 -0.12063603 1.261
0.04072782 -0.12072985 1.2620001
0.044252068 -0.12091916 1.2640001
0.048013557 -0.12168228 1.2720001
0.030795811 -0.1259553 1.2800001
0.034219209 -0.1256585 1.2770001
0.037685107 -0.12555835 1.276
0.041209925 -0.12565482 1.2770001
0.0062959632 -0.12655208 1.286
0.026488865 -0.10184368 1.2420001
0.026509073 -0.10532512 1.243
0.029888412 -0.10523918 1.2420001
0.047116123 -0.10573936 1.248
0.016363112 -0.10916432 1.248
0.023141734 -0.10890017 1.245
0.01979531 -0.11266605 1.2490001
0.023177873 -0.11248466 1.2470001
0.033420026 -0.11248084 1.2470001
0.016298262 -0.10532787 1.243
0.019732794 -0.1089011 1.245
0.01289505 -0.10192893 1.243
0.012904881 -0.10541324 1.2440001
0.020331295 -0.12625426 1.2830001
-0.010967682 -0.10566774 1.2470001
-0.021499958 -0.11056267 1.2640001
-0.017953318 -0.11003871 1.258
0.029580327 -0.090690747 1.2290001
0.043426618 -0.091496944 1.24
0.029627327 -0.09420611 1.2310001
0.043319907 -0.094659612 1.2370001
0.019656034 -0.098289862 1.24
0.023033122 -0.098209754 1.2390001
0.026447289 -0.098288015 1.24
0.029674288 -0.097732037 1.233
0.043178119 -0.097726196 1.233
0.016272726 -0.10176433 1.2410001
0.019655231 -0.10168158 1.24
0.023050768 -0.1016807 1.24
0.029769341 -0.1014325 1.2370001
0.019670252 -0.10515761 1.2410001
0.023068383 -0.1051567 1.2410001
0.033207104 -0.10837164 1.2390001
0.047038585 -0.10897684 1.2460001
-0.0074626626 -0.097657703 1.2320001
-0.010845006 -0.10110921 1.233
-0.014313223 -0.10515878 1.2410001
-0.021194709 -0.10558093 1.2460001
0.036225144 -0.083757766 1.2260001
0.019420495 -0.087046504 1.225
0.032839794 -0.087042712 1.225
0.036105666 -0.086828284 1.222
0.03967781 -0.087324299 1.2290001
0.032784969 -0.090246819 1.223
0.039579496 -0.090465464 1.2260001
0.032783713 -0.093592681 1.223
0.032809224 -0.097017422 1.2240001
0.032888293 -0.10061122 1.2270001
0.032967318 -0.10422104 1.23
0.0059754034 -0.086693056 1.22
-0.017570222 -0.097576916 1.2310001
-0.014164465 -0.097339757 1.228
-0.010801471 -0.097340256 1.228
-0.021059515 -0.10151722 1.238
-0.01417542 -0.10078067 1.2290001
-0.017682932 -0.10498861 1.2390001
0.053670648 -0.057599299 1.2410001
0.025813881 -0.072732657 1.21
0.029200243 -0.072912134 1.2130001
0.025834398 -0.076107576 1.2110001
0.029247459 -0.076358072 1.215
0.025940206 -0.079749994 1.2160001
0.022646142 -0.083215326 1.2180001
0.015986746 -0.086620808 1.2190001
0.036015701 -0.08995036 1.2190001
0.0026146027 -0.079425439 1.2110001
0.0026231483 -0.08301302 1.215
0.009286386 -0.086408541 1.2160001
0.01261692 -0.086408146 1.2160001
-0.017526682 -0.10069801 1.228
0.022389395 -0.065780491 1.2040001
0.022425937 -0.069191515 1.2060001
0.019106006 -0.072433509 1.205
0.022462443 -0.072613187 1.2080001
0.019121254 -0.075794794 1.2060001
0.022461731 -0.075919822 1.2080001
0.019152332 -0.079226829 1.2080001
0.022516768 -0.079422891 1.2110001
0.019230943 -0.082874455 1.2130001
-0.0039938488 -0.059139855 1.2030001
-0.00069741119 -0.065673366 1.202
0.0025997376 -0.069079004 1.2040001
0.0058929361 -0.072314836 1.2030001
0.005902546 -0.075733572 1.205
0.0059072487 -0.07909736 1.2060001
0.0059217396 -0.08260294 1.2090001
0.032773908 -0.023250272 1.222
0.029473841 -0.026642185 1.2240001
0.03237126 -0.026271801 1.207
0.042535979 -0.026422879 1.2140001
0.029208604 -0.029726043 1.2130001
0.038919322 -0.029528683 1.205
0.042780723 -0.029920239 1.2210001
0.029063731 -0.03288573 1.207
0.032155875 -0.032667328 1.199
0.035499636 -0.032721341 1.2010001
0.039112583 -0.032993257 1.2110001
0.043060444 -0.033483069 1.2290001
0.028942902 -0.036042392 1.202
0.032182213 -0.035981942 1.2
0.035646893 -0.036161318 1.2060001
0.039370373 -0.036550522 1.2190001
0.043270018 -0.037029617 1.235
0.025777441 -0.039531946 1.2080001
0.028966503 -0.039367847 1.2030001
0.032288957 -0.039400049 1.2040001
0.035823651 -0.039661255 1.212
0.046840828 -0.040575381 1.24
0.02575564 -0.042805515 1.207
0.029062297 -0.042805005 1.207
0.032476109 -0.042946294 1.2110001
0.050275624 -0.047405198 1.2410001
0.0091747632 -0.049173761 1.2010001
0.012465264 -0.049173526 1.2010001
0.015768826 -0.049214162 1.202
0.012413093 -0.052244499 1.1960001
0.015729122 -0.052375223 1.199
0.019029807 -0.052418508 1.2
0.015689397 -0.055519622 1.1960001
0.018997645 -0.055612043 1.1980001
0.022353964 -0.055797227 1.202
0.015662769 -0.058696505 1.194
0.018997172 -0.058892705 1.1980001
0.022353407 -0.059088811 1.202
0.018996671 -0.062173113 1.1980001
0.022334224 -0.062328249 1.2010001
0.015701275 -0.065399118 1.197
0.019027859 -0.065562531 1.2
0.015740173 -0.068848409 1.2
0.019059019 -0.068962634 1.202
0.015779041 -0.072313823 1.2030001
0.0058891219 -0.049214862 1.202
0.0091807116 -0.072254494 1.202
0.012462968 -0.07219404 1.2010001
0.015778542 -0.075606823 1.2030001
0.015791135 -0.078965083 1.2040001
0.0025892816 -0.052376062 1.199
0.0091440026 -0.052288428 1.197
0.0025890165 -0.065509431 1.199
0.0058735204 -0.068791993 1.199
0.009150438 -0.0687344 1.1980001
0.012421838 -0.068676703 1.197
0.0091880569 -0.075607628 1.2030001
0.01247295 -0.075544424 1.202
0.0091877524 -0.078900352 1.2030001
0.012472535 -0.078834392 1.202
0.0092103472 -0.082397692 1.2060001
0.012513611 -0.082397312 1.2060001
0.015843051 -0.082533464 1.2080001
-0.0173069 -0.046303764 1.212
-0.02406597 -0.049868226 1.2180001
-0.020627024 -0.049623042 1.212
-0.017277984 -0.049541563 1.21
-0.00069514528 -0.055613376 1.1980001
-0.00069454761 -0.058844946 1.197
-0.00069568976 -0.062226493 1.199
-0.023988323 -0.039728541 1.2140001
-0.020951599 -0.040285259 1.2310001
-0.020627851 -0.042983521 1.212
-0.030714702 -0.046492856 1.217
-0.027223278 -0.046226021 1.21
-0.023868877 -0.046150118 1.2080001
-0.020542353 -0.046112359 1.207
-0.027560184 -0.050154269 1.225
0.0025804504 -0.062018879 1.1950001
0.039340463 -0.01983639 1.2180001
0.042817134 -0.019901183 1.222
0.026270021 -0.023422103 1.2310001
0.029666798 -0.023440851 1.2320001
0.035707843 -0.022983562 1.2080001
0.038855612 -0.022888061 1.2030001
0.042466357 -0.023058884 1.212
0.026333759 -0.02686017 1.2340001
0.035441428 -0.026097286 1.199
0.038790599 -0.026140392 1.2010001
0.032156315 -0.029382564 1.199
0.035381883 -0.029333116 1.197
0.0058644949 -0.052288596 1.197
0.012381665 -0.055380698 1.1930001
0.015662359 -0.061965995 1.194
-0.033826504 -0.036251586 1.2090001
-0.030590152 -0.036342043 1.212
-0.027517231 -0.036672343 1.223
-0.037229966 -0.039660987 1.212
-0.033797968 -0.039530706 1.2080001
-0.030387739 -0.039400361 1.2040001
-0.027134288 -0.039466303 1.2060001
-0.034021191 -0.04312335 1.2160001
-0.030488146 -0.042840235 1.2080001
-0.027088806 -0.042698916 1.2040001
-0.023810057 -0.042734854 1.205
-0.03119358 -0.050604004 1.2360001
0.0025784231 -0.055427659 1.194
0.0025783589 -0.058697443 1.194
-0.034218721 -0.033321019 1.223
-0.040717848 -0.036490288 1.217
-0.037169144 -0.036281008 1.21
-0.0377515 -0.043583702 1.2290001
0.040310167 -0.11607228 1.2490001
0.043763984 -0.11616327 1.25
0.036538441 -0.11157724 1.2370001
0.0471875 -0.11274415 1.25
0.035955239 -0.093132183 1.217
0.039448857 -0.093513347 1.222
0.035865188 -0.096223421 1.2140001
0.039350461 -0.09661822 1.2190001
0.043036293 -0.1007705 1.2290001
0.042929441 -0.10387726 1.2260001
0.036185596 -0.10714557 1.225
0.042962603 -0.10731704 1.2270001
0.039698776 -0.11094412 1.23
0.043240789 -0.11139324 1.235
0.035863727 -0.09954384 1.2140001
0.012370653 -0.061862577 1.192
0.0058540963 -0.065290764 1.1950001
0.0091201505 -0.065235913 1.194
0.012391065 -0.065235615 1.194
0.005839562 -0.061863068 1.192
0.039219737 -0.099624276 1.215
0.035921298 -0.10303333 1.2160001
0.039185815 -0.10286225 1.2140001
0.039280944 -0.1064442 1.217
