# .PCD v0.7 - Point Cloud Data file format
VERSION 0.7
FIELDS x y z
SIZE 4 4 4
TYPE F F F
COUNT 1 1 1
WIDTH 85
HEIGHT 1
VIEWPOINT 0 0 0 1 0 0 0
POINTS 85
DATA ascii
0.013260748 -0.066363163 1.2788403
0.019697638 -0.079126075 1.2757601
0.011519037 -0.080668725 1.2760038
0.016131913 -0.072216555 1.2745166
0.0097155944 -0.072707139 1.2747221
0.014454639 -0.067823313 1.2670773
0.0088393763 -0.069922559 1.2651639
0.029245373 -0.093967408 1.2772021
0.027950909 -0.093627729 1.2777138
0.008420283 -0.09762647 1.2780403
0.029667914 -0.088863291 1.2754982
0.023485489 -0.08959356 1.2763327
0.0092453156 -0.093259379 1.2771055
0.0024561733 -0.092070535 1.2734494
0.030415229 -0.078410991 1.2668686
0.024851151 -0.078677475 1.2743676
0.0040286388 -0.080759145 1.271625
0.00028200075 -0.084982805 1.2671912
0.027209111 -0.071314991 1.2570405
0.018467415 -0.06682577 1.2596456
0.0037678741 -0.071736492 1.2593074
-0.00031910464 -0.079256095 1.257593
0.024638936 -0.064998768 1.2467322
0.014736468 -0.061674915 1.2516805
0.0039221421 -0.065511934 1.2501196
-0.00082110614 -0.072113916 1.2463459
0.021885995 -0.058666646 1.2387233
0.013828136 -0.056174688 1.2405519
0.0029734224 -0.059852012 1.2400206
0.012640771 -0.055061795 1.2316023
0.0046657566 -0.0569221 1.2320266
0.030724797 -0.098140873 1.2734383
0.028461959 -0.095945418 1.2756892
0.0086727701 -0.09925545 1.2766371
0.03174061 -0.097226761 1.2707319
0.024208479 -0.096211188 1.2703497
0.0091669559 -0.10133325 1.2720203
0.0031472966 -0.098638825 1.2694144
0.032046009 -0.087681629 1.2583576
0.0052656531 -0.095347576 1.2567174
0.0011199452 -0.092643179 1.2600893
0.030012768 -0.081096724 1.2480872
0.0032583028 -0.089439116 1.249018
0.00020167604 -0.08559408 1.2486494
0.028057717 -0.072181106 1.2398782
0.0016561486 -0.081824951 1.238999
-0.0010597259 -0.078407101 1.2411298
0.025454896 -0.064105116 1.2316421
-0.0014620349 -0.066283099 1.2305892
-0.0020197965 -0.070795491 1.2334219
0.031430766 -0.052464642 1.2183764
0.02424081 -0.057821438 1.2233132
0.016189745 -0.059740923 1.224226
0.0013699085 -0.063074738 1.2250516
-0.0068160854 -0.06209603 1.22245
0.032304112 -0.046768881 1.2145674
0.027884658 -0.050101303 1.2162098
-0.013357494 -0.05643063 1.2165869
-0.017032694 -0.054598272 1.2148273
0.022484351 -0.098213233 1.2603406
0.014992025 -0.099626824 1.260563
0.028600812 -0.09309984 1.2567755
0.021257382 -0.095151909 1.2537998
0.011881171 -0.09599591 1.2533631
0.030604556 -0.089696787 1.2426245
0.022505797 -0.087788165 1.2427065
0.008688461 -0.089826785 1.2439817
-0.0036103316 -0.093536809 1.2394443
0.027252998 -0.078832962 1.2352492
0.02037397 -0.083815254 1.2345752
0.0072655864 -0.085176572 1.2350258
-0.0035630763 -0.091039158 1.235075
0.0252399 -0.072199315 1.2271372
0.018809095 -0.077125438 1.22332
0.0056134388 -0.078225143 1.2249593
-0.00063477084 -0.077322781 1.2309278
0.022579683 -0.066157728 1.2232872
0.0160455 -0.067853622 1.2198733
0.006378945 -0.069623776 1.2205595
0.03106169 -0.095147602 1.2392858
0.01618382 -0.084591925 1.2258538
0.01276652 -0.085133359 1.2261289
-0.0042586103 -0.093847536 1.2331103
0.015425775 -0.083181828 1.2239318
0.012648789 -0.084058136 1.2246392
