# .PCD v0.7 - Point Cloud Data file format
VERSION 0.7
FIELDS x y z
SIZE 4 4 4
TYPE F F F
COUNT 1 1 1
WIDTH 85
HEIGHT 1
VIEWPOINT 0 0 0 1 0 0 0
POINTS 85
DATA ascii
0.085215248 -0.077245891 1.3107077
0.090023667 -0.088270873 1.3023888
0.081814021 -0.089406595 1.3032019
0.08701247 -0.081227161 1.3042165
0.080641754 -0.081455067 1.3051256
0.084932446 -0.074330173 1.2991587
0.078962691 -0.075310349 1.2974228
0.098221451 -0.10303736 1.2970651
0.097030863 -0.10284901 1.2978401
0.077367574 -0.10575978 1.2994328
0.098932222 -0.097689681 1.2972639
0.092841059 -0.098382801 1.2986348
0.078493163 -0.10139865 1.3000206
0.071478158 -0.098628409 1.2980199
0.09969198 -0.084841646 1.2929417
0.095007397 -0.087585405 1.3005447
0.073902436 -0.087525167 1.3001721
0.069295548 -0.089639753 1.2950881
0.096087202 -0.074482903 1.2868611
0.088159516 -0.070858777 1.2920959
0.07311371 -0.074600309 1.2920735
0.068163499 -0.080760591 1.2883648
0.09298335 -0.064701989 1.2799684
0.084060676 -0.062967569 1.287111
0.072822541 -0.065445803 1.2858025
0.067078263 -0.06996467 1.2806137
0.089959294 -0.055743638 1.2752302
0.082430899 -0.053721178 1.278937
0.071283907 -0.056427866 1.2786423
0.080353722 -0.049338054 1.2712395
0.072335809 -0.050845139 1.2720767
0.098864585 -0.10559858 1.2918876
0.097088203 -0.10428087 1.2950689
0.07730452 -0.10676835 1.2975179
0.099651396 -0.10380182 1.2895752
0.092253678 -0.10236183 1.2906376
0.077075981 -0.10702289 1.2924422
0.071083426 -0.10327673 1.2918432
0.099465974 -0.090397462 1.2815326
0.072061256 -0.095648266 1.2810067
0.068596818 -0.094181009 1.2856677
0.096923068 -0.080406204 1.2746964
0.069769219 -0.087232374 1.276298
0.067069203 -0.083380908 1.277763
0.094911039 -0.069012396 1.2705883
0.0677789 -0.076398045 1.2700027
0.065656878 -0.073879123 1.2735745
0.092175424 -0.058357861 1.2662446
0.065222941 -0.058720961 1.2682482
0.064561695 -0.063928083 1.269323
0.0976981 -0.042947594 1.257339
0.090632968 -0.049399644 1.2609788
0.08258912 -0.051137596 1.2622569
0.067705229 -0.053837243 1.2638917
0.059407283 -0.051584002 1.2629832
0.098673873 -0.036297057 1.2557435
0.094170578 -0.039787725 1.2566813
0.052813895 -0.043855358 1.2605151
0.049154021 -0.041332353 1.2600613
0.089230478 -0.10045687 1.2809203
0.081709631 -0.10149737 1.2816644
0.09536507 -0.094684929 1.2786094
0.087570585 -0.095148653 1.2761517
0.078165986 -0.095328577 1.2767535
0.09607628 -0.086411886 1.266487
0.088255286 -0.084286489 1.2683773
0.074536666 -0.085995764 1.2707512
0.061506875 -0.087190777 1.2669489
0.092961781 -0.07344941 1.2640418
0.085607715 -0.077503704 1.2625929
0.072561964 -0.078314155 1.2643499
0.061298635 -0.083265208 1.263804
0.090686582 -0.064208046 1.2592131
0.083427109 -0.06707485 1.2548201
0.070453681 -0.068075508 1.257781
0.065030977 -0.069138341 1.2644864
0.088195086 -0.057054318 1.2581973
0.081185594 -0.057064239 1.255349
0.071532324 -0.058503706 1.2566967
0.095634714 -0.090267502 1.2613859
0.08040645 -0.07481797 1.2548488
0.077005535 -0.075260341 1.2553847
0.060122613 -0.085118234 1.2610807
0.079573914 -0.072765164 1.2536856
0.076823294 -0.073707998 1.2544117
