# .PCD v0.7 - Point Cloud Data file format
VERSION 0.7
FIELDS x y z
SIZE 4 4 4
TYPE F F F
COUNT 1 1 1
WIDTH 726
HEIGHT 1
VIEWPOINT 0 0 0 1 0 0 0
POINTS 726
DATA ascii
0.088925354 -0.084625371 1.3339845
0.093873747 -0.080246471 1.3327914
0.088300362 -0.079496063 1.3348401
0.082848281 -0.081771635 1.3338836
0.092961855 -0.075035043 1.3306442
0.086983375 -0.074952006 1.333109
0.081185699 -0.076529942 1.3311749
0.08659485 -0.07170359 1.3284979
0.09202683 -0.087582581 1.3306115
0.086144492 -0.088396356 1.3311934
0.096203446 -0.083856009 1.3285441
0.080803208 -0.085986286 1.3300682
0.097078875 -0.078639805 1.3257822
0.078043163 -0.081273042 1.3276654
0.091648176 -0.072721407 1.3228182
0.083095148 -0.072330162 1.3228372
0.078918532 -0.076056905 1.3249042
0.09180788 -0.089523345 1.3264532
0.087793887 -0.090127394 1.3247981
0.095218517 -0.086247414 1.3230845
0.087834835 -0.087213494 1.3213196
0.081325658 -0.088169307 1.32446
0.096733302 -0.080804899 1.3217459
0.093365513 -0.08007253 1.318289
0.086566709 -0.079692014 1.3190182
0.080364898 -0.081870981 1.3195747
0.078174971 -0.083372064 1.3235828
0.091275364 -0.074765317 1.3174033
0.085282542 -0.07542979 1.3167791
0.079560772 -0.077007003 1.3182315
0.10406572 -0.093504518 1.3168021
0.099020287 -0.096047632 1.3190629
0.094009541 -0.094292209 1.3201724
0.088747665 -0.094096422 1.3209236
0.083689883 -0.09571968 1.3211943
0.079219617 -0.098786563 1.3210237
0.07333909 -0.097754978 1.3198428
0.10103053 -0.089743502 1.3177687
0.09386421 -0.087188445 1.3195202
0.087883748 -0.087809637 1.3190073
0.083320446 -0.088191472 1.3206922
0.077245966 -0.091715738 1.320516
0.10339761 -0.082350388 1.3132904
0.097286917 -0.080339275 1.316102
0.091601685 -0.082991481 1.3169097
0.086541213 -0.083776213 1.3163046
0.081867754 -0.083610222 1.318019
0.076062575 -0.083275199 1.3182037
0.070295066 -0.086929537 1.316566
0.1018129 -0.075130805 1.3088597
0.09633784 -0.074499801 1.3121843
0.086420111 -0.079548039 1.3157665
0.074634634 -0.077501923 1.3143322
0.06899751 -0.079670459 1.3121063
0.099905632 -0.070515618 1.3047704
0.094875358 -0.07004454 1.3079505
0.089688115 -0.069898114 1.310147
0.08449652 -0.07020092 1.3113643
0.079281248 -0.071337856 1.3111764
0.074002609 -0.072932005 1.3100172
0.06877017 -0.074822716 1.307852
0.093384691 -0.066414386 1.3038895
0.08852604 -0.066361368 1.3059107
0.083576314 -0.066648573 1.3070312
0.078612156 -0.067732625 1.3068926
0.073652178 -0.0691441 1.3058419
0.08728788 -0.062132142 1.3020676
0.082621127 -0.062572815 1.3030736
0.077904202 -0.063430279 1.3029957
0.086021341 -0.057047762 1.2983879
0.081532858 -0.057343282 1.2993894
0.077024706 -0.058292329 1.2992786
0.080555752 -0.052521817 1.2962551
0.099129789 -0.10447478 1.3172265
0.081028976 -0.10697883 1.3190179
0.10696474 -0.10069949 1.3155881
0.1026006 -0.10049868 1.3172878
0.09575662 -0.10211477 1.3183335
0.089564107 -0.10106885 1.319427
0.083790623 -0.10377017 1.3195168
0.076695979 -0.10408232 1.3198513
0.072304584 -0.1054941 1.3190193
0.10910858 -0.095852725 1.3134536
0.06856738 -0.10146115 1.3174653
0.1101921 -0.088083953 1.3088673
0.10700715 -0.089103878 1.3135204
0.068748869 -0.09439633 1.3173065
0.064573839 -0.094394371 1.3133831
0.10809665 -0.082042634 1.3070871
0.064584687 -0.088061832 1.3113937
0.10628961 -0.076359153 1.3038512
0.06413953 -0.08218988 1.3080227
0.10418139 -0.071577661 1.3002667
0.064154111 -0.077114776 1.3042288
0.10014708 -0.067097746 1.2989593
0.066505253 -0.071751498 1.3022883
0.094069429 -0.062292442 1.2988703
0.070932239 -0.065493017 1.3011606
0.092569612 -0.057306666 1.2954767
0.070354231 -0.06037993 1.2976754
0.093528666 -0.052712902 1.2912281
0.08714512 -0.052282244 1.2943239
0.07609836 -0.053455524 1.2960473
0.069550179 -0.055550475 1.2945181
0.090517431 -0.047806937 1.2890545
0.083994068 -0.047333818 1.2917222
0.079567134 -0.047753856 1.2929299
0.075044066 -0.048571877 1.2926084
0.068501726 -0.050852336 1.2912341
0.089831173 -0.044067007 1.2860645
0.083236091 -0.043560352 1.2886393
0.078741655 -0.044010364 1.2898207
0.074151799 -0.044817049 1.2895375
0.067568481 -0.047146462 1.2882684
0.087005958 -0.040329825 1.2841381
0.082512558 -0.040153582 1.2856727
0.0779875 -0.040642437 1.2869072
0.073347844 -0.041421365 1.28658
0.068859234 -0.04284025 1.2859333
0.086299077 -0.037197109 1.2811497
0.081553295 -0.035934847 1.2814944
0.07679119 -0.035679102 1.2817554
0.072315253 -0.037212852 1.2824078
0.06810955 -0.039713494 1.2829493
0.10699525 -0.11216495 1.3132855
0.074915722 -0.11660274 1.3164614
0.1116182 -0.10832582 1.3113761
0.10767707 -0.10816575 1.3138094
0.10253179 -0.10980418 1.3144469
0.096362822 -0.10853235 1.3142511
0.084158912 -0.11022057 1.3154581
0.078716695 -0.11309865 1.3168031
0.073297776 -0.11292157 1.3172135
0.06915313 -0.11420015 1.3155792
0.11332336 -0.10138848 1.3097519
0.10999829 -0.10096838 1.3133582
0.089941815 -0.10681402 1.3152119
0.066295929 -0.10767388 1.3152264
0.11304118 -0.094378203 1.3078099
0.065083891 -0.10088702 1.3147048
0.061663687 -0.10161074 1.3107448
0.11291976 -0.088297114 1.3031814
0.060963154 -0.095484443 1.3083243
0.11121978 -0.083060361 1.3008494
0.060711332 -0.09004724 1.3058491
0.10931048 -0.077809393 1.2978284
0.060519803 -0.084558852 1.3026562
0.10719283 -0.073063746 1.2946922
0.060639247 -0.07950373 1.2992994
0.10428644 -0.06661053 1.2904376
0.10028304 -0.063136458 1.2939084
0.064340547 -0.06810841 1.2974669
0.060828708 -0.072622351 1.2947381
0.10171817 -0.059511848 1.2866557
0.098665416 -0.058166616 1.2910181
0.06397514 -0.062965453 1.2944521
0.060616475 -0.06519758 1.2907232
0.099047743 -0.054514743 1.2861705
0.061699636 -0.059681296 1.289867
0.098042771 -0.050265703 1.2831187
0.060918499 -0.055401381 1.286793
0.095657751 -0.045891333 1.2820175
0.061781596 -0.05057776 1.2853686
0.094553366 -0.041244708 1.2778223
0.090896465 -0.039645009 1.2806435
0.064331681 -0.043319717 1.2832732
0.060767964 -0.045918342 1.2811675
0.093602896 -0.037216824 1.2742209
0.087752856 -0.035219625 1.2776097
0.0810633 -0.034102906 1.2793009
0.071863331 -0.035375655 1.2802112
0.065524913 -0.038294274 1.2798102
0.059888825 -0.041880779 1.2775574
0.086768702 -0.032387607 1.2738413
0.081178099 -0.030670129 1.2728376
0.075777076 -0.032056183 1.2765712
0.069588728 -0.032273207 1.2739863
0.06496726 -0.035403684 1.2759988
0.075128213 -0.030346476 1.2724053
0.10828877 -0.11907855 1.3117404
0.074666001 -0.12379501 1.3149496
0.10873166 -0.11644709 1.3125987
0.10463081 -0.1162346 1.3121099
0.078083813 -0.11996256 1.314711
0.074551739 -0.12127807 1.3159264
0.11337505 -0.11060017 1.3083498
0.1103795 -0.11160061 1.3116316
0.10077736 -0.11322249 1.3118258
0.096149743 -0.1123642 1.3101857
0.09011659 -0.11153847 1.3103749
0.084608153 -0.11396086 1.3113266
0.080787398 -0.11598802 1.3138038
0.071251579 -0.1170134 1.3155035
0.067524642 -0.11694302 1.3128886
0.11686549 -0.10542144 1.3050547
0.11468659 -0.10454457 1.3084744
0.064682186 -0.111462 1.3134223
0.062203903 -0.11298324 1.310464
0.11715592 -0.1007678 1.302917
0.06026727 -0.10863741 1.3085481
0.11616094 -0.095432274 1.300281
0.059264846 -0.10330316 1.3059127
0.11440285 -0.089731783 1.2973539
0.058828384 -0.097419538 1.3028556
0.11265302 -0.084807999 1.2945342
0.058613472 -0.092283353 1.2998825
0.11072673 -0.079797618 1.2914381
0.058488801 -0.087024115 1.2966082
0.10879394 -0.07512752 1.2884495
0.058482476 -0.082087442 1.2934289
0.10697944 -0.070768811 1.2857271
0.058499124 -0.07747525 1.290526
0.10450494 -0.063817695 1.28247
0.058339115 -0.070203982 1.2870389
0.10262767 -0.057495002 1.2793005
0.057801161 -0.063696168 1.2837363
0.10193102 -0.053740237 1.2768416
0.056975894 -0.059959009 1.2812918
0.10135271 -0.050364416 1.2743315
0.09844014 -0.046388257 1.2771456
0.058352068 -0.05193406 1.281112
0.056131426 -0.056620218 1.2788068
0.097335145 -0.041833673 1.2733245
0.057435293 -0.047353379 1.2772732
0.096387453 -0.03827912 1.2702756
0.056787875 -0.043757137 1.2741959
0.092043497 -0.033249184 1.2694515
0.087866962 -0.03097976 1.2695931
0.062735312 -0.03445641 1.2720803
0.059376482 -0.037768211 1.2726848
0.090037577 -0.031200547 1.2644331
0.086622566 -0.029819421 1.2659334
0.079834074 -0.028991036 1.266211
0.074366458 -0.029180422 1.266338
0.069131099 -0.030471779 1.2672707
0.062893681 -0.033101995 1.2682817
0.059753604 -0.035389829 1.2674307
0.10868075 -0.12104814 1.3078136
0.074561164 -0.12547588 1.3117582
0.11244583 -0.11971991 1.3053977
0.1095542 -0.11840484 1.3054113
0.10420503 -0.11867787 1.3066561
0.078024954 -0.1222994 1.3092471
0.07323958 -0.12407541 1.3088874
0.070431449 -0.12534562 1.3101095
0.11661091 -0.11051586 1.3031837
0.11466003 -0.11401102 1.3026332
0.10051587 -0.11720428 1.3046973
0.096989453 -0.11530799 1.3053896
0.090010636 -0.11447341 1.3052024
0.083684854 -0.11714842 1.3067062
0.080733448 -0.1199406 1.3066564
0.066129252 -0.12072455 1.3074368
0.063454255 -0.11786926 1.3084463
0.11775927 -0.1079812 1.2992964
0.060941339 -0.11584129 1.3049192
0.11815824 -0.10265446 1.2980671
0.058895953 -0.11085252 1.3039322
0.11687974 -0.09760353 1.2948867
0.058132514 -0.10573028 1.3007017
0.11454176 -0.092038311 1.2915165
0.05819454 -0.099832945 1.2970942
0.11261701 -0.087191604 1.2886895
0.058164366 -0.094724096 1.2940806
0.11070499 -0.082237132 1.2856239
0.05804681 -0.08952152 1.2908356
0.10897174 -0.077307902 1.2826399
0.057783399 -0.084388755 1.2877072
0.10749305 -0.072591901 1.2800062
0.05740438 -0.079520792 1.2849648
0.10542418 -0.065868318 1.2771313
0.057020329 -0.072557762 1.2819798
0.10394663 -0.060037173 1.2744148
0.056300055 -0.066628456 1.2791295
0.10352455 -0.056677572 1.2723167
0.055391803 -0.063335977 1.2770816
0.10200931 -0.050096966 1.2699865
0.054604176 -0.056654751 1.274678
0.10033683 -0.044293351 1.266454
0.0539423 -0.050711371 1.271046
0.098486342 -0.039951779 1.266312
0.054494146 -0.046037421 1.2706656
0.096767195 -0.036831409 1.2628334
0.094365939 -0.034366913 1.2628337
0.05621228 -0.039644819 1.2666111
0.054608591 -0.042663474 1.2670058
0.091523811 -0.032557338 1.2591809
0.086186633 -0.030176908 1.2598767
0.081760161 -0.028943554 1.2630591
0.06669423 -0.031027682 1.264551
0.062236246 -0.033490136 1.2622479
0.057705473 -0.037235595 1.2625285
0.10218011 -0.022968963 1.2529416
0.097307935 -0.024849586 1.2544564
0.079109706 -0.029115658 1.2594194
0.073756516 -0.029273313 1.2600447
0.068541646 -0.030577388 1.2604656
0.049265303 -0.031495653 1.2592111
0.043869771 -0.031035312 1.2587134
0.10627927 -0.016007092 1.2497799
0.10191862 -0.019506529 1.2519441
0.097067818 -0.020194385 1.2516294
0.047696404 -0.027023982 1.2565165
0.042993873 -0.02765809 1.2577758
0.037521362 -0.025518641 1.2565854
0.10933091 -0.010318555 1.2465469
0.10594991 -0.013066344 1.2487595
0.10058255 -0.015192803 1.2493616
0.042598315 -0.02321415 1.2551
0.036845312 -0.02262599 1.2555995
0.032489918 -0.020948205 1.2541528
0.10970359 -0.0077471063 1.2448925
0.106349 -0.008859396 1.2459204
0.034791216 -0.018758424 1.2530028
0.031128719 -0.018616773 1.2526699
0.1126458 -0.12367093 1.3013023
0.1099016 -0.12381679 1.3020247
0.11301154 -0.12191524 1.3014785
0.10832114 -0.12163379 1.3006806
0.1039258 -0.1190908 1.3013624
0.07738106 -0.12276276 1.3039893
0.073618032 -0.12731564 1.3045797
0.06980712 -0.12815928 1.3058969
0.11333675 -0.11634809 1.2978122
0.10115597 -0.11859142 1.2992364
0.095897116 -0.11647572 1.2990215
0.089705907 -0.11633378 1.2995203
0.083804891 -0.11814846 1.3002192
0.079451978 -0.12159403 1.3013843
0.067079417 -0.12274703 1.3023918
0.11659842 -0.11100924 1.2948875
0.062002953 -0.11856169 1.3002924
0.11722872 -0.1059993 1.2927911
0.059657607 -0.11396334 1.2984892
0.1164787 -0.099927597 1.2907934
0.058348857 -0.10796878 1.2965475
0.11395211 -0.094610773 1.2871164
0.058596659 -0.1022683 1.2925961
0.1115325 -0.089765497 1.2844781
0.059069991 -0.097022802 1.2896711
0.10954764 -0.085091889 1.2812852
0.059072286 -0.092074364 1.2862818
0.10811767 -0.079599731 1.276822
0.058086511 -0.086520955 1.2817727
0.10722877 -0.074126922 1.275598
0.057352386 -0.08107093 1.280713
0.10632832 -0.069599174 1.2734796
0.056443505 -0.076499946 1.2784172
0.10422783 -0.064686067 1.2701811
0.056472789 -0.07126563 1.2749569
0.10374645 -0.060038552 1.2679353
0.055242971 -0.066748321 1.2727362
0.10305597 -0.054052033 1.2645097
0.053626169 -0.060889781 1.2694019
0.10122257 -0.047506507 1.261
0.052921776 -0.054188155 1.2657808
0.099291995 -0.042095855 1.2591484
0.052932322 -0.048509058 1.263737
0.096593045 -0.037870046 1.255892
0.094889961 -0.035731796 1.2568678
0.054937225 -0.041258503 1.2608232
0.053716984 -0.043801434 1.2601349
0.098033912 -0.032704763 1.2543763
0.091824159 -0.032500159 1.2564727
0.087369218 -0.032832034 1.2534529
0.06059853 -0.036535379 1.2561026
0.056885596 -0.037333287 1.2599306
0.05067692 -0.03925588 1.2590634
0.10341368 -0.02718433 1.2508051
0.096665896 -0.026075497 1.2543058
0.090800293 -0.028667025 1.2521701
0.082926057 -0.031433128 1.2537211
0.078380972 -0.030970503 1.2539829
0.073456027 -0.031167906 1.2543573
0.068682566 -0.032312028 1.2549419
0.06446749 -0.033986513 1.255549
0.055993613 -0.03348197 1.2556145
0.051634442 -0.031888086 1.2585814
0.04419212 -0.03513512 1.2573053
0.10752868 -0.019975692 1.2479337
0.095025703 -0.020300038 1.2476363
0.092788592 -0.023894899 1.2491748
0.052258052 -0.029501706 1.2531867
0.048883878 -0.026683126 1.2522026
0.037054047 -0.029724821 1.2549095
0.11051722 -0.013622057 1.2437539
0.10951457 -0.014341939 1.2469554
0.099955961 -0.013693307 1.2450902
0.097473286 -0.016888104 1.2462697
0.045393646 -0.024092637 1.2514234
0.041964978 -0.021715444 1.250831
0.032013923 -0.02457881 1.2520404
0.11078603 -0.0078313127 1.2416086
0.10542944 -0.0086739957 1.241753
0.10235749 -0.010915317 1.2440226
0.038746245 -0.019715019 1.2503184
0.034807809 -0.018443398 1.2487428
0.029497527 -0.019076511 1.249652
0.11096693 -0.0049601644 1.240932
0.028425172 -0.016378574 1.2491014
0.11263701 -0.12527463 1.298223
0.11016359 -0.12589043 1.2979404
0.11297535 -0.12507281 1.2968469
0.11000101 -0.12576994 1.2965281
0.072529279 -0.13096824 1.3003849
0.069651417 -0.13108322 1.3012851
0.10777759 -0.11843622 1.2940582
0.10269462 -0.11870918 1.2929217
0.098244697 -0.11777408 1.2939273
0.08095865 -0.12016522 1.2956382
0.076817036 -0.12228911 1.2954825
0.072165161 -0.12336277 1.297583
0.11345998 -0.11239925 1.2902925
0.10761117 -0.11492135 1.2878089
0.093777433 -0.11666276 1.2910184
0.089261882 -0.11692593 1.2942055
0.084316373 -0.11797146 1.2919552
0.070175394 -0.12010001 1.2915148
0.064454801 -0.11917832 1.2951428
0.11150642 -0.10642243 1.2847128
0.063618138 -0.1130469 1.2894521
0.11520712 -0.10258893 1.2875509
0.059640717 -0.11027561 1.2930501
0.11136329 -0.098468333 1.2827522
0.061237622 -0.10540268 1.2877122
0.1078421 -0.092796795 1.2786555
0.062247623 -0.099103868 1.2831675
0.10753994 -0.086489014 1.2767011
0.060461037 -0.093001649 1.281361
0.10703882 -0.081221402 1.2717397
0.058835626 -0.088229045 1.2764565
0.10772885 -0.077662267 1.2700057
0.056845021 -0.084441349 1.2758998
0.055432141 -0.082742006 1.2744797
0.10640305 -0.071450971 1.2682385
0.056073107 -0.077661015 1.2748765
0.054506004 -0.078964747 1.2722756
0.10361975 -0.066150203 1.2647443
0.055645451 -0.073666662 1.2698027
0.1035232 -0.060903937 1.2621108
0.05456632 -0.067676231 1.2669564
0.10277691 -0.055509236 1.2587262
0.053168934 -0.062371694 1.2636371
0.10091028 -0.05075746 1.2560291
0.053134058 -0.05736649 1.2607585
0.099055596 -0.044715092 1.2547221
0.053008493 -0.051084924 1.2592798
0.096251674 -0.040470053 1.2524265
0.094081283 -0.038999211 1.2507703
0.055405725 -0.044349499 1.2545979
0.054071803 -0.046304923 1.2566019
0.097110994 -0.03527293 1.2491001
0.091143623 -0.03587532 1.2487667
0.086502515 -0.035371281 1.2490051
0.061243761 -0.038865305 1.2515054
0.056952871 -0.040604983 1.2521499
0.051223323 -0.041620772 1.2536416
0.10231916 -0.029055435 1.2460101
0.096756205 -0.030541014 1.2444698
0.091704838 -0.030847006 1.2469581
0.082502812 -0.033844829 1.2492901
0.078052722 -0.03367532 1.2491087
0.07333111 -0.033931922 1.2492334
0.068782166 -0.034957781 1.2500265
0.064662851 -0.036312673 1.2510557
0.054723814 -0.035962965 1.2506168
0.049395613 -0.037092693 1.2491572
0.044042237 -0.037117347 1.2517779
0.10657143 -0.021787174 1.2433746
0.10174783 -0.024671197 1.2419962
0.095445871 -0.024729013 1.243579
0.048898019 -0.031168297 1.2481853
0.042630471 -0.032849275 1.247846
0.037567787 -0.031332869 1.2502049
0.10651919 -0.01704644 1.2403629
0.10016493 -0.017712347 1.2411977
0.042099439 -0.025744919 1.2469438
0.035762943 -0.026834659 1.2473652
0.10968522 -0.012680188 1.2402511
0.10624748 -0.01217844 1.2394445
0.034534112 -0.022098839 1.2465432
0.031579211 -0.023485035 1.2479807
0.10065309 -0.11665845 1.287591
0.096896723 -0.11580962 1.2852963
0.088706896 -0.11674427 1.2888522
0.080042422 -0.11814125 1.2869644
0.077166975 -0.11990758 1.2899156
0.10567889 -0.11133365 1.2841207
0.099013768 -0.11237922 1.2820005
0.093208104 -0.114531 1.2834929
0.087939173 -0.11487126 1.2837104
0.082832992 -0.11596622 1.28452
0.076488242 -0.11549516 1.2842307
0.070324674 -0.11622449 1.2876195
0.10737284 -0.10255528 1.2805986
0.10466201 -0.1053372 1.2802435
0.10163673 -0.10839551 1.2803644
0.095526397 -0.10912689 1.2783663
0.078205772 -0.11152284 1.2800794
0.072626598 -0.11240844 1.2832358
0.068926245 -0.11028049 1.2837801
0.06568817 -0.10832167 1.2847233
0.10359123 -0.098769553 1.2768435
0.098298803 -0.10306901 1.2756894
0.073445745 -0.10650683 1.2781483
0.067516789 -0.10375986 1.2804137
0.1020566 -0.094807938 1.2735674
0.067270055 -0.099620134 1.2770096
0.10543536 -0.088282555 1.2700814
0.10109667 -0.090952821 1.2705331
0.066555619 -0.095730893 1.273952
0.06251318 -0.093874685 1.2774385
0.10939074 -0.083977856 1.2646663
0.10620784 -0.08475773 1.2700592
0.10059799 -0.086581945 1.2684947
0.096571185 -0.084735155 1.2661391
0.064731866 -0.091643572 1.2712132
0.060124498 -0.091130495 1.2734667
0.054897711 -0.091262117 1.2708893
0.10854314 -0.079428554 1.2643845
0.1082319 -0.078221507 1.2672293
0.052807115 -0.085406199 1.2717381
0.049208693 -0.086958207 1.2682106
0.10565814 -0.074328125 1.2620767
0.097396143 -0.074005917 1.2597543
0.051581517 -0.080759302 1.2688662
0.10145359 -0.067971647 1.260301
0.099195942 -0.071518466 1.259868
0.061416 -0.076986723 1.2631193
0.057618156 -0.075137898 1.2648015
0.052081428 -0.078286789 1.26553
0.10293632 -0.062937133 1.2565863
0.054604035 -0.069623165 1.2613704
0.10244928 -0.058180351 1.2549658
0.053473119 -0.064955451 1.259813
0.099819757 -0.053899527 1.2516555
0.054166984 -0.060214803 1.2561744
0.097872414 -0.047823861 1.250546
0.05415782 -0.05387117 1.2548724
0.096013993 -0.043058984 1.2499926
0.093804762 -0.043758545 1.246752
0.056173511 -0.048964169 1.2504765
0.054523885 -0.048798583 1.2540983
0.090223193 -0.039837837 1.2464472
0.085703589 -0.038923159 1.2446458
0.079802357 -0.038202073 1.2437128
0.067310117 -0.039930236 1.2449489
0.062114112 -0.042186558 1.2469801
0.05844111 -0.044234466 1.2495917
0.077580817 -0.036535792 1.2453928
0.073367946 -0.03729558 1.2449021
0.069281995 -0.03768383 1.246214
0.092150606 -0.11035496 1.2786216
0.087002568 -0.11145613 1.2790211
0.081771053 -0.11179075 1.2796494
0.094825976 -0.10259803 1.273743
0.091627099 -0.10493468 1.2741766
0.085966386 -0.10695473 1.2748415
0.079953209 -0.10654958 1.2753332
0.076222159 -0.10517157 1.2755845
0.096032888 -0.098069638 1.271481
0.089503624 -0.099806793 1.2702079
0.084657393 -0.10080778 1.2702059
0.079814769 -0.10114723 1.2711669
0.073430762 -0.10119636 1.2737178
0.1098685 -0.091981724 1.2622367
0.10699902 -0.0920325 1.2652695
0.10164926 -0.091457769 1.2653444
0.095324479 -0.094017886 1.2687356
0.088483036 -0.094583891 1.2668777
0.083614618 -0.095637798 1.2668946
0.078733273 -0.095932655 1.2678423
0.072481707 -0.097177885 1.2709966
0.10971242 -0.086240746 1.2609359
0.10941967 -0.088935718 1.2648499
0.099138431 -0.089657277 1.2653769
0.094742835 -0.08780212 1.2646079
0.087326303 -0.089528225 1.2641906
0.082645126 -0.090537868 1.264226
0.077948615 -0.090825498 1.2651178
0.071443312 -0.091327041 1.2672026
0.064977646 -0.091701947 1.2684605
0.058584716 -0.092827789 1.2670403
0.052340593 -0.093024023 1.2670254
0.10906909 -0.082523189 1.2618804
0.10730665 -0.07978636 1.2596673
0.093648307 -0.082651697 1.2614751
0.088212781 -0.084176183 1.2619243
0.082680561 -0.084982611 1.2621231
0.076332919 -0.085457146 1.2628419
0.069671974 -0.086342126 1.2639189
0.065269768 -0.088756353 1.2649677
0.06008634 -0.090904929 1.2630203
0.048000358 -0.090905502 1.2660502
0.10448816 -0.077655174 1.2575728
0.098245643 -0.076464288 1.2584889
0.091997407 -0.078283429 1.2595093
0.086119317 -0.079603426 1.2585735
0.081954256 -0.081105985 1.2601562
0.075881563 -0.08121717 1.2599064
0.069100693 -0.081297211 1.2613071
0.063698865 -0.080814227 1.2608396
0.048642956 -0.082801022 1.2650282
0.046208717 -0.086458288 1.2629576
0.097055152 -0.071922816 1.2552558
0.093060434 -0.075279668 1.2553173
0.066999137 -0.078884847 1.2578958
0.062314708 -0.076728687 1.2586942
0.057206653 -0.079340622 1.2592075
0.051438067 -0.079977818 1.2602803
0.047785938 -0.08244805 1.2592027
0.10054242 -0.06560728 1.2522531
0.099598281 -0.068952896 1.2538489
0.058845449 -0.074590407 1.2578831
0.056747928 -0.071665592 1.256588
0.10005529 -0.061773434 1.2500485
0.09737394 -0.061091062 1.2472718
0.057565913 -0.066597901 1.2512115
0.055752698 -0.067902163 1.2544338
0.098429188 -0.056354921 1.2489032
0.095572658 -0.057412203 1.2459738
0.05802682 -0.062605947 1.2496903
0.055610105 -0.062278315 1.2531403
0.094009481 -0.051491924 1.2448825
0.057699945 -0.056514759 1.2484758
0.091054752 -0.04656028 1.2430032
0.085429132 -0.046853472 1.2398493
0.063582614 -0.049875613 1.242011
0.058801278 -0.051022064 1.2461954
0.084487155 -0.042664569 1.2414048
0.078642555 -0.042458653 1.2404598
0.073696785 -0.042953253 1.2403184
0.068923488 -0.043803174 1.2414212
0.063644782 -0.045547683 1.2434682
0.11018586 -0.093100667 1.2574571
0.10750603 -0.096363448 1.2601089
0.10246848 -0.094960481 1.2600989
0.10971072 -0.090192601 1.25746
0.10757669 -0.087906994 1.2545754
0.098563343 -0.092575826 1.2587663
0.096095614 -0.089731872 1.2579688
0.056093249 -0.093197659 1.2636939
0.051813148 -0.094519064 1.2633942
0.1055796 -0.083557032 1.255187
0.098709427 -0.086032294 1.2536461
0.095227391 -0.086702898 1.2570045
0.058081895 -0.089957364 1.260192
0.052004684 -0.092342131 1.2586792
0.046183027 -0.09368895 1.2605512
0.043157659 -0.092181519 1.2589713
0.10062988 -0.082500562 1.2542535
0.083652891 -0.080051318 1.255519
0.080443218 -0.080734871 1.255679
0.077199541 -0.080944203 1.2561586
0.057913035 -0.085088655 1.2568179
0.05370995 -0.087156922 1.2547184
0.044136964 -0.087854214 1.2578633
0.042706437 -0.091092862 1.256622
0.091157272 -0.075129583 1.2514473
0.085017905 -0.078173988 1.2508144
0.080047764 -0.08025483 1.2523549
0.074501477 -0.079628818 1.2518541
0.068010554 -0.078331657 1.2537383
0.053931862 -0.081845663 1.2561648
0.050001658 -0.083439916 1.2547421
0.0463553 -0.084142789 1.2570652
0.096357994 -0.06900546 1.2494575
0.09139587 -0.071810819 1.2471371
0.066063806 -0.075315222 1.2496426
0.061073065 -0.07388667 1.2529494
0.094831653 -0.064272441 1.245863
0.091566198 -0.066093698 1.2439981
0.063761994 -0.069940239 1.2467494
0.060549386 -0.069014773 1.2492566
0.09285678 -0.059734169 1.244103
0.088019326 -0.061773799 1.2417603
0.082305849 -0.05977343 1.2396498
0.069966011 -0.061480463 1.2408712
0.065517567 -0.064886548 1.2439876
0.060854226 -0.064161338 1.2472708
0.086615838 -0.054540388 1.2400048
0.080227278 -0.055884484 1.238501
0.075381562 -0.05666535 1.2381742
0.070661202 -0.057207745 1.239449
0.064559802 -0.057591531 1.2421871
0.085957125 -0.050554316 1.2393714
0.079440795 -0.049660567 1.2381308
0.074743018 -0.052446645 1.2376196
0.069658488 -0.051013902 1.239098
0.063987948 -0.053593375 1.2415457
0.074223176 -0.048288129 1.2381792
0.11007965 -0.096054569 1.2552023
0.10794572 -0.099065416 1.2547604
0.10232529 -0.096597344 1.2550337
0.10937192 -0.09403152 1.2538308
0.10663246 -0.092608258 1.2513943
0.10000674 -0.094514057 1.2519789
0.10472158 -0.087803945 1.2521081
0.10005289 -0.089841075 1.2516322
0.049371317 -0.091570422 1.2556518
0.045125119 -0.093935087 1.2565384
0.043060057 -0.094536744 1.2567793
0.049814709 -0.088005669 1.2525668
0.044792183 -0.090537556 1.2529074
0.0427562 -0.092352077 1.2550945
0.079540767 -0.078955494 1.249046
0.049196906 -0.086488903 1.2516245
0.046940379 -0.086337477 1.2523581
0.084351182 -0.074811816 1.2449399
0.078697875 -0.076104663 1.2445138
0.073097013 -0.076368809 1.2460537
0.088202938 -0.067578286 1.2421321
0.083218567 -0.069433361 1.2403463
0.077539958 -0.071203485 1.2396642
0.071836114 -0.071007997 1.2414732
0.066976488 -0.070514634 1.2442333
0.081512198 -0.06512849 1.2396003
0.077434048 -0.065386042 1.2391814
0.072472848 -0.066158503 1.240502
0.07914529 -0.060350187 1.2392535
0.07606142 -0.060869079 1.2391676
0.073027723 -0.061196454 1.2398582
0.10643617 -0.099137232 1.2512022
0.10301285 -0.098393522 1.2503753
0.10483475 -0.096404523 1.2495875
0.10151441 -0.09636905 1.249898
