# .PCD v0.7 - Point Cloud Data file format
VERSION 0.7
FIELDS x y z
SIZE 4 4 4
TYPE F F F
COUNT 1 1 1
WIDTH 726
HEIGHT 1
VIEWPOINT 0 0 0 1 0 0 0
POINTS 726
DATA ascii
0.0004627688 -0.037229087 0.045087446
0.0060563465 -0.033675868 0.046183061
0.00046247759 -0.033025816 0.048215102
-0.0051310156 -0.033675864 0.046182021
0.0060776165 -0.027986201 0.046683323
-4.7451213e-005 -0.028042573 0.048764542
-0.0057912585 -0.027579794 0.046181962
0.00046266738 -0.023036048 0.046182543
0.0034475655 -0.038796861 0.040798273
-0.0025212381 -0.038796861 0.040797722
0.0082764328 -0.03528849 0.040798724
-0.0073501021 -0.03528849 0.040797275
0.010120898 -0.02961182 0.040798895
-0.009194565 -0.02961182 0.040797103
0.0058620023 -0.02218096 0.040798496
-0.0025212381 -0.020426776 0.040797729
-0.0073501021 -0.023935137 0.040797275
0.0033731218 -0.038566448 0.036209363
-0.00050608505 -0.037674878 0.034369133
0.0075121685 -0.034732822 0.034829848
0.00027144569 -0.033548366 0.032644939
-0.0065847337 -0.034732822 0.034828544
0.0098790545 -0.02961182 0.036209967
0.0069955206 -0.026837952 0.033410609
0.000271353 -0.025707969 0.034075178
-0.0061961105 -0.026837945 0.033409383
-0.0089518726 -0.02961182 0.036208227
0.0057443026 -0.021443475 0.035046205
-0.00019508232 -0.020745255 0.034043763
-0.0061948034 -0.021836603 0.034463394
0.015861148 -0.039693512 0.026099462
0.010317745 -0.042110544 0.026801527
0.0055074273 -0.04024661 0.028482206
0.00027172334 -0.039543122 0.029115273
-0.0049638278 -0.04024655 0.028481234
-0.00977383 -0.042110439 0.026799666
-0.015317071 -0.039693404 0.026096573
0.013286229 -0.036338374 0.028634297
0.0063965353 -0.033708695 0.031204272
0.00046413543 -0.033025812 0.030321639
-0.0042526121 -0.033368643 0.03152914
-0.010706277 -0.035363458 0.029591531
0.017066371 -0.028222769 0.028160825
0.011039609 -0.026727941 0.031443324
0.0049927821 -0.028471695 0.030790785
-4.5691453e-005 -0.028042575 0.029772105
-0.0047993492 -0.027901635 0.031258609
-0.010496415 -0.026727879 0.03144132
-0.016522577 -0.028222661 0.028157704
0.016920807 -0.019624781 0.027557271
0.011282725 -0.019676458 0.03066699
0.00046405013 -0.024077538 0.031259093
-0.010739358 -0.019676406 0.030664945
-0.016376862 -0.019624719 0.02755418
0.016068578 -0.013408139 0.026038786
0.010861502 -0.013608076 0.028956447
0.0055515692 -0.013617595 0.030847127
0.00027159631 -0.013574453 0.031662967
-0.0050082356 -0.013617586 0.030846147
-0.010317816 -0.013608059 0.028954484
-0.015524352 -0.01340811 0.02603586
0.010283244 -0.0083346209 0.027012777
0.005301564 -0.0084013455 0.028713757
0.00027179069 -0.0083404109 0.029456422
-0.0047578448 -0.0084013455 0.028712826
-0.0097391997 -0.0083346125 0.02701092
0.0050328067 -0.0027450514 0.027247861
0.00027194206 -0.0028139071 0.0278256
-0.0044888253 -0.0027450514 0.02724698
0.004836475 0.0035896325 0.026324371
0.00027202119 0.0036208536 0.026968824
-0.0042923237 0.0035896325 0.026323523
0.00027207268 0.0094288895 0.026412966
0.0094558997 -0.048667714 0.021259757
-0.0089109661 -0.048667636 0.021258049
0.017857142 -0.045919798 0.021748267
0.013414935 -0.045792319 0.023243543
0.006343239 -0.046545506 0.023257444
0.00027213441 -0.045099538 0.024567677
-0.005798691 -0.046545442 0.023256321
-0.012870324 -0.045792226 0.023241106
-0.017312218 -0.045919728 0.021745009
0.020840913 -0.041062206 0.022161011
-0.020296082 -0.041062098 0.0221572
0.023416774 -0.032356307 0.021738784
0.019682342 -0.034837507 0.02530938
-0.019138083 -0.034837365 0.025305785
-0.022871813 -0.032356177 0.021734493
0.022348059 -0.025910901 0.022922046
-0.021803265 -0.025910808 0.022917954
0.02165712 -0.019163964 0.022657324
-0.021112265 -0.019163895 0.02265336
0.020580212 -0.012997989 0.02165777
-0.020035191 -0.012997968 0.021654006
0.017340487 -0.0078117307 0.022487557
-0.016795624 -0.0078117307 0.022484396
0.012010755 -0.0025566746 0.024501579
-0.011466258 -0.0025566746 0.024499403
0.011543244 0.0036005285 0.023779416
-0.01099862 0.0036005203 0.023777327
0.013530307 0.009394927 0.022176879
0.0069915797 0.0094233984 0.024967739
-0.0042307065 0.0094468957 0.025690325
-0.010824511 0.0093974108 0.023208549
0.011441946 0.015177721 0.022463061
0.0048129768 0.015461224 0.024892114
0.00027214232 0.01527938 0.025662299
-0.0042685596 0.015461224 0.024891274
-0.010897077 0.015177704 0.02246099
0.01156738 0.019925782 0.021538319
0.0048812004 0.020292759 0.023898724
0.00027222812 0.020107791 0.024630465
-0.0043365993 0.020292759 0.023897871
-0.01102234 0.019925773 0.021536227
0.0094792601 0.024542704 0.021503033
0.0049219881 0.024744654 0.022839179
0.00027232341 0.024506439 0.023599625
-0.0043771905 0.024744645 0.022838319
-0.0089342156 0.024542697 0.021501329
0.0095010614 0.028761575 0.020298058
0.0049595335 0.03049791 0.02107849
0.00027253496 0.031393465 0.021318141
-0.0044144196 0.03049791 0.021077624
-0.0089558037 0.028761558 0.020296348
0.016548615 -0.054910351 0.014378874
-0.016002243 -0.054910351 0.014375857
0.021817658 -0.05144925 0.014581404
0.017715137 -0.051762439 0.016718805
0.012355519 -0.052631475 0.016400132
0.0064645316 -0.050404318 0.01667352
-0.0059187561 -0.050404262 0.016672369
-0.011809585 -0.052631442 0.016397893
-0.017169228 -0.051762424 0.016715573
-0.02127132 -0.051449236 0.014577413
0.024603918 -0.044922352 0.016409243
0.021029864 -0.045643929 0.019719727
0.00027272219 -0.048271623 0.018173356
-0.0231646 -0.045102697 0.017232511
0.025471454 -0.037856288 0.017941732
-0.023383303 -0.038724717 0.019898072
-0.026468284 -0.036987629 0.015976027
0.026632972 -0.030407915 0.016668752
-0.026087051 -0.030407799 0.016663857
0.025898214 -0.02448152 0.016999977
-0.025352325 -0.024481434 0.016995218
0.025026809 -0.018193405 0.016720625
-0.024480851 -0.018193351 0.016716039
0.023891835 -0.012261237 0.01610099
-0.023345767 -0.01226122 0.016096612
0.022321265 -0.0041943844 0.015266393
0.018507995 -0.0020692062 0.01986175
-0.017962646 -0.0020692062 0.01985837
-0.021775061 -0.0041943765 0.015262307
0.021126019 0.0041658431 0.015158442
0.017872658 0.0038643379 0.019575441
-0.017327255 0.0038643379 0.01957218
-0.020579789 0.0041658352 0.015154577
0.019221384 0.0092034526 0.016989598
-0.018675491 0.0092034442 0.016986087
0.01910793 0.014478092 0.016239205
-0.018561907 0.014478084 0.01623572
0.017459927 0.01920373 0.017242132
-0.016914092 0.019203713 0.017238956
0.017413938 0.025362121 0.015664492
0.01375031 0.026085764 0.018819967
-0.013204769 0.026085755 0.018817473
-0.016867811 0.025362113 0.015661316
0.0173779 0.030684927 0.014324612
0.011550054 0.031861786 0.01811778
0.0049403105 0.03318049 0.019977331
-0.0043949923 0.033180483 0.019976467
-0.011004388 0.031861797 0.018115694
-0.01683153 0.030684918 0.014321448
0.01133389 0.036219057 0.016074052
0.0061527579 0.039107356 0.015853874
0.00027280644 0.03709203 0.018389
-0.0056066746 0.039107356 0.01585279
-0.010787847 0.036219049 0.016072001
0.00027307586 0.040592454 0.015479625
0.017032374 -0.060472094 0.009826351
-0.017081643 -0.06047526 0.0096877934
0.017744165 -0.0586337 0.011820397
0.013776761 -0.057543993 0.01139068
-0.013165323 -0.057580456 0.011338768
-0.016946612 -0.058698177 0.011720656
0.023535533 -0.052354395 0.010886018
0.020124722 -0.054225527 0.013255283
0.010415234 -0.054138735 0.012449274
0.0061290059 -0.051871665 0.011286885
0.00027331765 -0.05023345 0.011697734
-0.0055822465 -0.051871613 0.0112858
-0.0098685697 -0.054138698 0.012447394
-0.019578146 -0.054225527 0.013251594
-0.022988509 -0.052354395 0.010881694
0.028005965 -0.046901591 0.010456867
0.025642887 -0.047328897 0.013841289
-0.025096433 -0.047328867 0.013836578
-0.027458882 -0.046901576 0.010451717
0.029135771 -0.041904539 0.010735013
-0.028588755 -0.041904483 0.010729655
0.029139506 -0.035870582 0.010859239
-0.028592529 -0.035870507 0.01085387
0.028468998 -0.029257508 0.010877233
-0.027921995 -0.029257374 0.010872
0.027690377 -0.023374248 0.010628652
-0.027143307 -0.023374166 0.010623571
0.026776332 -0.01726022 0.010171484
-0.026229156 -0.017260147 0.010166573
0.025799062 -0.011491847 0.0096518612
-0.025251789 -0.01149183 0.0096471319
0.024869952 -0.006136931 0.0092254309
-0.024322627 -0.006136931 0.0092208739
0.023695664 0.0018398144 0.0095157595
-0.02314838 0.0018398144 0.0095114186
0.023016216 0.0091273719 0.0096052522
-0.022468967 0.0091273645 0.009601037
0.02308145 0.01364839 0.0091575896
-0.022534095 0.013648382 0.0091533726
0.023216655 0.017840911 0.008491748
0.020611966 0.020524196 0.012762595
-0.020065291 0.020524163 0.012758826
-0.022669198 0.017840901 0.0084874965
0.020516532 0.026432693 0.011471258
-0.019969637 0.026432684 0.011467508
0.020364212 0.031087948 0.010403843
-0.019817119 0.031087931 0.010400128
0.016846871 0.036586802 0.011910647
0.013023803 0.03920212 0.012993372
-0.012477191 0.03920212 0.012991009
-0.016300058 0.036586788 0.011907576
0.015638227 0.040996894 0.0083733145
0.012312335 0.042090174 0.010263293
0.0057036495 0.043816142 0.010735739
0.0002735251 0.044501111 0.010631789
-0.0051566274 0.043816142 0.010734733
-0.011765216 0.042090166 0.010261063
-0.015090757 0.040996894 0.0083704675
0.017533969 -0.06047342 0.0054428107
-0.017102621 -0.060476191 0.0060776807
0.021663923 -0.058837187 0.0040102229
0.018990414 -0.057212058 0.0045654853
0.013556409 -0.057128996 0.0054156003
-0.013008373 -0.057128988 0.0054131397
-0.017934587 -0.057724401 0.0041568098
-0.020996664 -0.058926389 0.0045834458
0.027242742 -0.05046666 0.0064268718
0.02489605 -0.05295049 0.0042683706
0.010310595 -0.054334998 0.0042798147
0.0070239147 -0.052404746 0.0056917062
0.00027387674 -0.050429754 0.0057507437
-0.0064760773 -0.052404702 0.0056904531
-0.0097624073 -0.054334972 0.0042779446
-0.024347799 -0.052950487 0.0042637936
-0.026694901 -0.050466653 0.0064218547
0.029100506 -0.046669699 0.0041899211
-0.028552268 -0.046669677 0.0041845548
0.030340578 -0.041514739 0.0055875299
-0.029792612 -0.041514676 0.0055819391
0.030079244 -0.035434581 0.0050899312
-0.029531177 -0.035434492 0.0050843991
0.028861646 -0.028641885 0.0046390626
-0.028313493 -0.028641779 0.0046337652
0.027900431 -0.022794267 0.0043451902
-0.027352186 -0.022794185 0.0043400619
0.02699014 -0.016744964 0.003888855
-0.026441801 -0.016744923 0.0038839043
0.026244381 -0.010785477 0.003498934
-0.02569598 -0.010785445 0.0034941216
0.025686486 -0.0052140532 0.0033253354
-0.02513808 -0.0052140532 0.003320626
0.024843853 0.002322054 0.0038578815
-0.024275715 0.0023020853 0.003906098
0.024447538 0.0089075575 0.0041278433
-0.023899265 0.0089075491 0.0041233636
0.024694137 0.012872107 0.0038237178
-0.024145808 0.012872099 0.0038192025
0.024324903 0.019943673 0.0047843433
-0.023776751 0.019943666 0.0047798934
0.02381224 0.026908524 0.0043152687
-0.023264011 0.026908515 0.0043109143
0.022593275 0.031079972 0.0061650071
-0.022045398 0.031079965 0.0061608758
0.021663122 0.035679571 0.0044956175
0.019631136 0.03823493 0.0055861054
-0.019083152 0.03823493 0.0055825217
-0.021114934 0.035679553 0.004491664
0.017431818 0.04195321 0.0031266788
0.012425171 0.044606335 0.0047244467
0.0079174191 0.044972327 0.008012387
-0.0073698922 0.044972327 0.0080109714
-0.011877036 0.044606324 0.0047221989
-0.01688339 0.041953202 0.0031234992
0.029857861 0.051414318 0.0023095161
0.024648579 0.049888302 0.0026625423
0.005635683 0.046919044 0.0046469932
0.00027404679 0.047385681 0.0050017033
-0.0050875279 0.046919044 0.0046460042
-0.024100104 0.049888235 0.0026580561
-0.029309336 0.051414255 0.0023040646
0.035158291 0.058264971 0.0028434882
0.030169515 0.05494196 0.0030297735
0.025322679 0.055288956 0.0023184223
-0.02477416 0.055288889 0.0023138199
-0.029621135 0.054941878 0.0030242635
-0.034609888 0.058264907 0.0028370547
0.039259218 0.064207681 0.0026976063
0.035334166 0.061357424 0.0032999874
0.029692374 0.060114507 0.0027177813
-0.029143937 0.060114458 0.0027123697
-0.03478587 0.061357334 0.0032935296
-0.03871081 0.064207658 0.0026904116
0.040138956 0.067148976 0.0024375156
0.036578804 0.066265285 0.0027509988
-0.036030393 0.066265196 0.0027443031
-0.039590511 0.067148879 0.002430158
0.021722289 -0.060464162 -0.0014483415
0.018925767 -0.060464162 -0.00094174035
0.022305431 -0.059067931 -0.00046874752
0.017796023 -0.057679921 -0.0011531694
0.013741908 -0.055034343 0.0005295868
-0.013192968 -0.055034332 0.00052708201
-0.017582571 -0.05866259 -0.0011544746
-0.021584397 -0.059367117 -0.00047015818
0.023743115 -0.052581925 -0.0011173473
0.011286138 -0.053169779 -0.0011853363
0.0064094136 -0.050346851 -0.00051456114
0.00027442482 -0.04942137 -0.00015144823
-0.0058604563 -0.050346792 -0.00051570137
-0.010736939 -0.053169739 -0.0011873913
-0.023193866 -0.052581917 -0.0011217115
0.02797341 -0.047120407 -0.0011481434
-0.027424186 -0.047120374 -0.0011533067
0.029483125 -0.041886181 -0.00066070579
-0.028933993 -0.041886114 -0.00066613947
0.029766357 -0.03553893 0.00037640418
-0.029217426 -0.03553883 0.00037091924
0.028358933 -0.028792892 -0.00046577046
-0.027809817 -0.028792793 -0.00047097469
0.02689122 -0.0229498 -0.00060569559
-0.02634206 -0.022949703 -0.00061062735
0.02588311 -0.017076589 -0.0013065098
-0.025333818 -0.017076552 -0.001311255
0.025657976 -0.010000806 -0.0027391301
-0.025108401 -0.010000802 -0.0027438242
0.02564721 -0.0045067449 -0.0012984843
-0.024985548 -0.0046268846 -0.0011652979
0.025583545 0.0005694289 -0.001089728
-0.02503431 0.0005694289 -0.0010943984
0.024504375 0.0067193094 -0.0017752594
-0.023953587 0.0067200675 -0.0017236217
0.024882752 0.011888721 -0.0016142642
-0.024333416 0.011888713 -0.0016188149
0.02535275 0.018801611 -0.0018796411
-0.024803367 0.018801603 -0.0018842829
0.024779951 0.026431456 -0.0019858177
-0.02423057 0.026431439 -0.0019903569
0.02379504 0.03233052 -0.0011559703
-0.023245795 0.032330513 -0.0011603252
0.022027753 0.037959032 -0.0021374985
0.0205444 0.039668895 -0.00031835755
-0.019995322 0.03966888 -0.00032210755
-0.021478333 0.037959006 -0.0021415267
0.02430102 0.042929761 -0.0010435906
0.01800042 0.043186236 0.00076224923
0.013856774 0.045010183 -0.0021700442
-0.013307357 0.045010176 -0.0021725593
-0.017451555 0.043186218 0.00075897708
-0.023751846 0.04292972 -0.0010480204
0.030708035 0.048493002 -0.0015133842
0.023862803 0.048990279 0.0019449317
0.017933659 0.048669364 -0.0012894147
0.009639509 0.04685007 -0.0013852053
0.0051950589 0.04789136 -0.0010460544
0.00027458565 0.0483656 -0.00092037232
-0.0046458538 0.047891352 -0.0010469642
-0.009090241 0.04685007 -0.0013869408
-0.017384443 0.048669312 -0.0012926612
-0.021755653 0.049438074 0.0019731144
-0.029413298 0.048413258 -0.00084008271
0.036029629 0.055424619 -0.0006072364
0.023684571 0.057353314 -0.0013146389
0.020837693 0.053878151 -0.0016751783
-0.02028841 0.053878117 -0.0016789534
-0.023135368 0.057353232 -0.0013189426
-0.035480585 0.055424519 -0.00061382673
0.040251445 0.062391214 -0.0012842873
0.038851716 0.06047013 0.0011929966
0.029696045 0.063474603 -0.00038072941
0.026697045 0.060554873 -0.00088124938
-0.026147934 0.060554817 -0.00088611146
-0.029147038 0.063474558 -0.00038615186
-0.039469093 0.062070929 -0.00087874051
0.041516047 0.068391271 -0.00048629643
0.036104195 0.068476819 -0.00087334879
0.032547433 0.065992936 2.1579117e-005
-0.031998508 0.065992832 1.5633181e-005
-0.035555113 0.068476766 -0.00087995757
-0.040967081 0.068391189 -0.00049390917
0.042151723 0.07118094 0.00025568652
-0.04160291 0.071180858 0.00024795803
0.021795882 -0.060464162 -0.004921359
0.01930001 -0.060464162 -0.0055149007
0.022291245 -0.05971767 -0.0060373214
0.019294189 -0.059688356 -0.0067139915
-0.018744512 -0.059768606 -0.0065934672
-0.021686057 -0.05980061 -0.0059173917
0.018342867 -0.051776826 -0.0055430238
0.013403988 -0.050654188 -0.0067948955
0.0090449415 -0.049554445 -0.005573683
-0.008495017 -0.049554389 -0.0055753179
-0.012853757 -0.050654143 -0.0067973472
-0.017792813 -0.0517768 -0.0055463915
0.025137657 -0.045723874 -0.0059364629
0.019268291 -0.045829374 -0.0094444258
0.0050751874 -0.046515837 -0.0077369739
0.00027489197 -0.047446769 -0.0051432839
-0.0045249118 -0.046515785 -0.0077378643
-0.018717542 -0.045829322 -0.0094479667
-0.024587551 -0.045723829 -0.0059410944
0.024571184 -0.037628785 -0.0081440071
-0.024020674 -0.037628695 -0.0081485268
0.028466336 -0.036180597 -0.0037622224
-0.027916629 -0.036180515 -0.0037674573
0.025706235 -0.029751888 -0.0061848797
-0.025156077 -0.029751796 -0.0061896034
0.023407372 -0.022338791 -0.007257768
-0.022856982 -0.022338718 -0.0072620581
0.024160434 -0.015879141 -0.0060620857
-0.023610262 -0.015879121 -0.0060665021
0.024869137 -0.0089278417 -0.008017417
-0.024083292 -0.0092003504 -0.0082277367
0.026204398 -0.0051384605 -0.00788181
-0.025475385 -0.0053012217 -0.0070066536
-0.026498249 -0.0029331576 -0.0075066262
0.025916634 0.001321936 -0.0065896818
-0.025212113 0.0012260963 -0.0047774632
-0.026681347 0.0015293676 -0.0077230865
0.024235927 0.0080136182 -0.0072839437
-0.024593465 0.0071024061 -0.0074231066
0.02511332 0.013819253 -0.0071781287
-0.024562959 0.013819236 -0.0071827257
0.02544363 0.020204762 -0.0076839658
-0.024893176 0.020204753 -0.0076886239
0.024514347 0.025901001 -0.0079065245
-0.023963857 0.025900984 -0.0079110116
0.023636939 0.032092076 -0.0062977439
-0.023086742 0.032092061 -0.006302068
0.021674832 0.037317511 -0.0064220657
0.019897118 0.039719503 -0.007256553
-0.019346761 0.039719496 -0.0072601833
-0.021124626 0.037317503 -0.006426027
0.023556126 0.043237261 -0.0069312886
0.017621784 0.043853465 -0.0076469695
0.013090068 0.044956453 -0.0073086689
-0.012539703 0.044956453 -0.0073110373
-0.017071368 0.043853458 -0.0076501649
-0.023005851 0.043237228 -0.0069355718
0.029841715 0.049219456 -0.0066538816
0.024303595 0.049544372 -0.0088382056
0.019037398 0.048983313 -0.0068961005
0.009326132 0.046826903 -0.0064404719
0.00497845 0.047797076 -0.0066265338
0.00027512555 0.048300304 -0.0067463089
-0.0044282121 0.047797076 -0.0066274004
-0.0087759281 0.046826903 -0.0064421492
-0.018487142 0.048983272 -0.0068995529
-0.023752984 0.049544338 -0.0088426229
-0.029291529 0.049219374 -0.0066593285
0.035283741 0.05607336 -0.0055083279
0.030268297 0.054978389 -0.0081830565
0.023891089 0.055254139 -0.0069559892
-0.023340838 0.055254109 -0.0069603245
-0.029717838 0.054978315 -0.0081885792
-0.034733787 0.056073252 -0.0055147861
0.036173042 0.061601851 -0.0059723803
0.029734353 0.061694682 -0.0056916876
-0.029184354 0.0616946 -0.0056971121
-0.035623014 0.061601784 -0.0059790076
0.039901745 0.064948231 -0.0039677862
0.036658388 0.066324838 -0.0045275455
-0.036108632 0.066324763 -0.0045342599
-0.039352123 0.064948164 -0.0039750999
0.012191019 -0.046094265 -0.010608917
0.0088265697 -0.043682877 -0.012334058
0.00027533018 -0.044759046 -0.0098113753
-0.0082754018 -0.043682821 -0.012335651
-0.011640142 -0.046094183 -0.01061114
0.018212443 -0.040689461 -0.011088262
0.011703935 -0.039532386 -0.013607177
0.0055394843 -0.04113055 -0.013422222
0.00027571231 -0.040651966 -0.013510874
-0.0049880859 -0.041130494 -0.0134232
-0.011152482 -0.039532304 -0.013609304
-0.017661421 -0.040689383 -0.011091597
0.02142405 -0.031685445 -0.010085431
0.018405991 -0.033508115 -0.011756405
0.014993908 -0.035736691 -0.013143048
0.0090634739 -0.034452286 -0.015395549
-0.0085116504 -0.034452204 -0.015397178
-0.014442502 -0.035736632 -0.013145775
-0.017854825 -0.03350804 -0.011759765
-0.020873174 -0.031685345 -0.010089349
0.01857787 -0.026035117 -0.011738744
0.012885004 -0.02839298 -0.014883704
-0.012333225 -0.028392943 -0.014886039
-0.01802667 -0.02603505 -0.011742135
0.01792457 -0.020822423 -0.012832527
-0.017373154 -0.020822369 -0.012835795
0.02248689 -0.014086107 -0.012806289
0.017800104 -0.015907606 -0.013750027
-0.017248502 -0.015907606 -0.013753256
-0.02132252 -0.015198955 -0.0098969648
0.027503403 -0.0085114455 -0.015506308
0.023731755 -0.011119236 -0.011169827
0.018103287 -0.011072435 -0.013533127
0.014614047 -0.007715309 -0.014853912
-0.018222012 -0.010780908 -0.014320495
-0.02291587 -0.010592707 -0.012193846
-0.027836503 -0.0086664213 -0.014659587
0.027315436 -0.0042611994 -0.013660419
0.026895439 -0.004447896 -0.010588192
-0.029182509 -0.0035808468 -0.011234152
-0.032598346 -0.0027358518 -0.015162924
0.025391445 0.0017322466 -0.01340044
0.01751454 0.0044437367 -0.01550022
-0.029477103 0.0019964657 -0.011644512
0.022285311 0.0088016773 -0.012115385
0.019617584 0.0062699956 -0.014201105
-0.018702943 0.006280113 -0.014748655
-0.022360336 0.007763356 -0.012488616
-0.028320985 0.0055958717 -0.013437452
0.024796888 0.014652069 -0.013028815
-0.024245445 0.014652053 -0.013033347
0.025123587 0.019633444 -0.012263343
-0.024572285 0.019633433 -0.012267943
0.023437489 0.025323233 -0.013265346
-0.022886008 0.025323225 -0.013269631
0.02245412 0.031468682 -0.011468511
-0.021902964 0.031468667 -0.011472611
0.021325309 0.036199659 -0.0097873909
0.019367812 0.037429333 -0.01303337
-0.018816378 0.037429314 -0.013036904
-0.020774487 0.036199633 -0.0097912923
0.016400216 0.041593976 -0.011563788
0.012243783 0.043964993 -0.012839191
0.0066136685 0.046001133 -0.013468278
-0.0060621724 0.046001133 -0.013469453
-0.011692394 0.043965001 -0.012841406
-0.015849063 0.041593976 -0.01156677
0.0044859597 0.047063552 -0.01125783
0.00027562573 0.047321662 -0.012143903
-0.0039348672 0.047063552 -0.011258611
0.0055419635 -0.035082914 -0.015818695
0.00027598173 -0.03537304 -0.01609797
-0.004990052 -0.035082866 -0.015819672
0.0097146863 -0.026518123 -0.016469423
0.0061987941 -0.028229604 -0.017245542
0.00027615283 -0.029359356 -0.017729351
-0.005646579 -0.028229576 -0.017246636
-0.0091626132 -0.026518069 -0.016471174
0.011743166 -0.021726478 -0.016337661
0.0051918398 -0.021582494 -0.018426009
0.00027628089 -0.021652607 -0.019006321
-0.0046393899 -0.021582486 -0.018426919
-0.011191104 -0.02172645 -0.016339788
0.027120391 -0.014489438 -0.021368099
0.02398763 -0.015437334 -0.018774159
0.018782889 -0.014079931 -0.018565364
0.011865336 -0.016813172 -0.016901532
0.0052228267 -0.015326479 -0.018969642
0.00027633211 -0.015448119 -0.019557724
-0.0046702768 -0.015326476 -0.01897056
-0.011313162 -0.016813161 -0.01690368
0.027876535 -0.0088470653 -0.019854635
0.026837874 -0.012938586 -0.01764855
0.016549312 -0.012101422 -0.017759314
0.012542579 -0.0093981642 -0.01767985
0.0050340299 -0.0094865421 -0.019025734
0.00027633362 -0.0096090501 -0.019572333
-0.0044814735 -0.0094865421 -0.019026618
-0.01116881 -0.0097939316 -0.017566057
-0.017719012 -0.0096204262 -0.016777946
-0.024038164 -0.0088970298 -0.01870914
-0.030221166 -0.0080249077 -0.018959697
0.027656663 -0.0059170709 -0.017304141
0.026508015 -0.0022218213 -0.018032294
0.012471425 -0.0032830704 -0.018084329
0.0068593943 -0.0039188555 -0.018522408
0.0012743283 -0.0037962936 -0.018850641
-0.0051203812 -0.0034841832 -0.018583631
-0.011915054 -0.0036423304 -0.018197855
-0.016688032 -0.0055015683 -0.018494118
-0.021902444 -0.0056341286 -0.021338984
-0.034117445 -0.0050066747 -0.018938355
0.024223868 0.0010649536 -0.01896253
0.018140536 0.0027270291 -0.017743465
0.011631035 0.0017085202 -0.017832121
0.0057457266 0.0019557662 -0.019411907
0.0012787401 0.00061222241 -0.018806618
-0.004700724 0.001637464 -0.019221712
-0.011535265 0.0020564415 -0.018178165
-0.016750956 0.00358894 -0.018493369
-0.032278538 0.0024446647 -0.016060919
-0.034975484 0.00059117191 -0.019652311
0.017901722 0.0083707673 -0.018522337
0.013498498 0.0060688867 -0.02012255
-0.012945738 0.0060688704 -0.020124994
-0.017349256 0.0083707506 -0.018525599
-0.022792811 0.0067001437 -0.01940595
-0.028673451 0.0066119996 -0.018886166
-0.032506458 0.0055476567 -0.021075191
0.022495206 0.014685204 -0.018162945
0.020952027 0.01118774 -0.018327493
-0.020399597 0.011187731 -0.018331317
-0.021942811 0.014685196 -0.01816706
0.022752993 0.019124676 -0.018343974
0.020472884 0.02143083 -0.020547068
-0.019920053 0.02143082 -0.02055081
-0.02220057 0.019124659 -0.018348129
0.02200027 0.024658214 -0.01687683
0.019325094 0.025540633 -0.02002847
-0.018772367 0.025540633 -0.020031985
-0.021448107 0.024658214 -0.016880853
0.01869775 0.031478569 -0.018279631
-0.01814534 0.031478569 -0.018283036
0.016639903 0.037140157 -0.017719103
0.011360194 0.039253917 -0.020780198
-0.010807327 0.039253917 -0.020782251
-0.016087608 0.037140157 -0.01772213
0.010850412 0.042367917 -0.017476441
0.0052071195 0.043949362 -0.018354813
0.00027624477 0.044402327 -0.018825764
-0.0046547139 0.043949347 -0.018355723
-0.010298163 0.042367917 -0.017478401
0.027747666 -0.013345631 -0.026113145
0.024400977 -0.016963182 -0.025344448
0.019625403 -0.014893963 -0.024819149
0.027675498 -0.010722924 -0.024770003
0.026164189 -0.0070558181 -0.026309857
0.016229557 -0.011551847 -0.024981294
0.014261803 -0.0082900934 -0.024423007
-0.026218761 -0.0072838166 -0.021902287
-0.030590482 -0.007592665 -0.022882912
0.024728326 -0.0031952213 -0.023793468
0.017766275 -0.0035189327 -0.02646957
0.013912817 -0.0050560371 -0.023889082
-0.023473529 -0.0031840384 -0.023450848
-0.029644337 -0.0035735362 -0.026040012
-0.035751909 -0.0046370882 -0.025145371
-0.03837562 -0.002096432 -0.025913553
0.020082388 -0.0010235206 -0.024244884
0.003550682 0.0033636091 -0.022382449
0.00027660717 0.0032259838 -0.022633731
-0.0029975041 0.0033636091 -0.02238306
-0.022646869 0.0026398317 -0.02417705
-0.026868738 0.0024834711 -0.02709586
-0.036711421 0.0020321824 -0.02486006
-0.038442701 4.9583616e-007 -0.027497938
0.012020073 0.0082776975 -0.02352374
0.005612399 0.0069215447 -0.025643699
0.0002768602 0.0052254163 -0.025363892
-0.005058622 0.0069215447 -0.02564469
-0.011466689 0.0082776817 -0.023525918
-0.026066732 0.0064367317 -0.023341049
-0.030021144 0.0063414904 -0.025433132
-0.033939805 0.0052747172 -0.023788448
0.018178297 0.013678771 -0.022316057
0.013129072 0.013104716 -0.025792105
-0.012575266 0.013104708 -0.02579448
-0.017625127 0.013678771 -0.022319371
0.01766965 0.01971063 -0.023334038
0.014383329 0.019508386 -0.025909504
-0.013829505 0.019508379 -0.025912115
-0.017116303 0.019710613 -0.023337258
0.016512968 0.024811415 -0.022828894
0.011693076 0.024896404 -0.025964489
0.0065375678 0.028556487 -0.027036693
-0.0059835468 0.028556487 -0.027037848
-0.011139246 0.024896404 -0.025966603
-0.015959717 0.024811408 -0.022831902
0.011466845 0.03225866 -0.024188261
0.0051302086 0.03282766 -0.026293376
0.00027701721 0.033098117 -0.027059408
-0.0045763259 0.03282766 -0.026294278
-0.010913347 0.032258652 -0.024190322
0.011422588 0.036144402 -0.022910208
0.0052398006 0.038574252 -0.023747144
0.000276873 0.037148867 -0.025604643
-0.0046863896 0.038574245 -0.023748059
-0.010869331 0.036144402 -0.022912275
0.00027664891 0.040619876 -0.023187852
0.027460279 -0.014887201 -0.029484536
0.024988551 -0.016966006 -0.03132689
0.019755768 -0.013996855 -0.030068927
0.027172104 -0.01237489 -0.029774956
0.024902742 -0.0095648477 -0.03133554
0.018051749 -0.010398069 -0.031859517
0.023603627 -0.005368168 -0.02851375
0.018768204 -0.0061589079 -0.029991468
-0.031840313 -0.0010829635 -0.028423132
-0.036436737 -0.002850103 -0.02883799
-0.038578946 -0.0031437078 -0.028952118
-0.030615546 0.0033674487 -0.029487405
-0.03594726 0.00183075 -0.030479921
-0.038416065 -0.00041432233 -0.029435288
0.00027707662 0.0079519739 -0.027700337
-0.030925881 0.0052265227 -0.029631352
-0.033202469 0.0053992993 -0.02896242
0.0059870086 0.012647964 -0.029296519
0.00027732734 0.012649719 -0.030407308
-0.005432555 0.012647972 -0.029297573
0.011046303 0.019616732 -0.028329372
0.0060522375 0.019633763 -0.030889191
0.00027751664 0.01933904 -0.032450393
-0.0054974901 0.019633763 -0.030890256
-0.010492032 0.019616732 -0.028331369
0.0050292588 0.024024241 -0.029588219
0.0010135121 0.024667107 -0.030174773
-0.0041133328 0.024214273 -0.029481361
0.0033808684 0.028757386 -0.027729841
0.00027711529 0.028854104 -0.028118515
-0.0028267088 0.028757386 -0.027730415
0.023837669 -0.015158445 -0.034546334
0.020643702 -0.013563044 -0.035011753
0.022788694 -0.011766249 -0.034742489
0.019488754 -0.011324967 -0.034528263
