# .PCD v0.7 - Point Cloud Data file format
VERSION 0.7
FIELDS x y z
SIZE 4 4 4
TYPE F F F
COUNT 1 1 1
WIDTH 726
HEIGHT 1
VIEWPOINT 0 0 0 1 0 0 0
POINTS 726
DATA ascii
0.00050483871 -0.040613551 0.049186308
0.0066069239 -0.036737312 0.050381523
0.00050452101 -0.036028165 0.052598294
-0.0055974713 -0.036737308 0.05038039
0.0066301269 -0.030530402 0.050927263
-5.1764961e-005 -0.030591898 0.053197686
-0.006317737 -0.030087048 0.050380323
0.00050472806 -0.025130235 0.050380956
0.0037609804 -0.042323846 0.044507205
-0.0027504414 -0.042323846 0.044506606
0.0090288352 -0.038496535 0.044507697
-0.0080182934 -0.038496535 0.044506118
0.011040981 -0.032303806 0.044507883
-0.010030435 -0.032303806 0.044505931
0.006394912 -0.024197411 0.044507451
-0.0027504414 -0.022283755 0.044506617
-0.0080182934 -0.026111061 0.044506118
0.0036797693 -0.04207249 0.039501127
-0.0005520928 -0.041099865 0.037493601
0.0081950929 -0.037890352 0.037996195
0.0002961226 -0.03659822 0.035612661
-0.007183346 -0.037890352 0.037994776
0.010777151 -0.032303806 0.039501783
0.0076314774 -0.029277768 0.036447935
0.00029602146 -0.028045058 0.037172925
-0.0067593935 -0.029277759 0.036446601
-0.0097656799 -0.032303806 0.039499883
0.0062665124 -0.023392882 0.038232222
-0.00021281709 -0.022631189 0.037138648
-0.0067579672 -0.023821751 0.037596431
0.01730307 -0.043302014 0.028472142
0.011255722 -0.045938775 0.029238028
0.0060081026 -0.043905392 0.031071497
0.00029642545 -0.043137953 0.031762116
-0.0054150852 -0.043905325 0.031070437
-0.01066236 -0.045938659 0.029235998
-0.016709533 -0.043301895 0.028468991
0.014494068 -0.039641861 0.031237414
0.0069780387 -0.036773123 0.034041025
0.00050632958 -0.036028158 0.033078153
-0.004639213 -0.036402155 0.034395427
-0.011679575 -0.038578317 0.032281671
0.018617859 -0.030788478 0.030720901
0.012043211 -0.029157754 0.034301806
0.0054466715 -0.031060031 0.033589948
-4.9845225e-005 -0.0305919 0.03247866
-0.0052356538 -0.030438147 0.034100302
-0.011450634 -0.029157687 0.034299619
-0.018024629 -0.030788358 0.030717494
0.018459063 -0.021408852 0.030062476
0.012308427 -0.021465227 0.033454899
0.00050623651 -0.026266407 0.034100831
-0.011715664 -0.021465169 0.033452667
-0.017865667 -0.021408785 0.030059107
0.017529357 -0.014627061 0.028405949
0.011848912 -0.014845174 0.031588852
0.0060562571 -0.014855558 0.033651412
0.00029628689 -0.014808495 0.034541417
-0.0054635298 -0.01485555 0.033650342
-0.0112558 -0.014845156 0.03158671
-0.016935658 -0.014627029 0.028402757
0.011218085 -0.0090923132 0.029468484
0.0057835244 -0.0091651045 0.0313241
0.00029649894 -0.0090986304 0.03213428
-0.0051903762 -0.0091651045 0.031323083
-0.010624581 -0.0090923049 0.02946646
0.0054903347 -0.0029946016 0.029724939
0.00029666407 -0.0030697167 0.0303552
-0.0048969002 -0.0029946016 0.029723978
0.0052761547 0.0039159628 0.028717497
0.0002967504 0.0039500222 0.029420534
-0.0046825348 0.0039159628 0.028716572
0.00029680657 0.010286062 0.028814146
0.010315527 -0.053092055 0.023192463
-0.0097210547 -0.053091969 0.023190599
0.019480519 -0.050094329 0.023725383
0.014634475 -0.04995526 0.025356593
0.0069198972 -0.050776914 0.025371758
0.00029687388 -0.049199499 0.026801104
-0.0063258451 -0.050776847 0.025370531
-0.014040354 -0.049955156 0.025353935
-0.018886056 -0.050094247 0.023721829
0.022735542 -0.044795137 0.02417565
-0.022141181 -0.044795014 0.024171492
0.025545573 -0.035297792 0.023715038
0.021471648 -0.038004551 0.027610233
-0.020877909 -0.038004398 0.02760631
-0.024951069 -0.035297647 0.023710355
0.0243797 -0.028266439 0.02500587
-0.023785381 -0.028266335 0.025001405
0.023625951 -0.020906143 0.024717079
-0.023031563 -0.020906068 0.024712758
0.02245114 -0.014179624 0.023626659
-0.021856571 -0.014179601 0.023622554
0.018916894 -0.0085218884 0.02453188
-0.018322499 -0.0085218884 0.024528431
0.013102642 -0.0027890997 0.026728997
-0.012508646 -0.0027890997 0.026726622
0.01259263 0.0039278492 0.025941182
-0.011998495 0.0039278404 0.025938902
0.014760335 0.010249011 0.024192959
0.007627178 0.010280072 0.027237535
-0.0046153162 0.010305705 0.028025808
-0.011808557 0.01025172 0.025318418
0.012482123 0.016557515 0.024505159
0.0052505205 0.01686679 0.027155034
0.00029688256 0.016668415 0.027995236
-0.0046566105 0.01686679 0.027154118
-0.011887721 0.016557496 0.024502899
0.01261896 0.021737218 0.023496348
0.0053249463 0.022137554 0.026071336
0.00029697616 0.021935772 0.026869597
-0.0047308356 0.022137554 0.026070407
-0.01202437 0.021737209 0.023494067
0.010341011 0.026773861 0.023457855
0.0053694416 0.026994169 0.02491547
0.00029708009 0.026734298 0.025745045
-0.0047751167 0.026994159 0.024914531
-0.0097464174 0.026773851 0.023455994
0.010364795 0.031376265 0.022143338
0.0054104002 0.033270448 0.022994718
0.00029731088 0.034247417 0.023256155
-0.0048157303 0.033270448 0.022993771
-0.0097699678 0.031376246 0.022141472
0.018053034 -0.059902202 0.015686044
-0.017456993 -0.059902202 0.015682753
0.023801081 -0.056126457 0.015906986
0.019325605 -0.056468114 0.018238697
0.013478749 -0.057416156 0.017891055
0.0070522162 -0.054986529 0.018189296
-0.006456825 -0.054986466 0.018188041
-0.012883184 -0.057416119 0.017888611
-0.018730067 -0.056468103 0.018235171
-0.023205075 -0.056126442 0.015902633
0.026840638 -0.049006205 0.017900992
0.022941669 -0.049793381 0.02151243
0.0002975151 -0.052659955 0.019825479
-0.025270473 -0.049202945 0.018799104
0.027787043 -0.041297767 0.0195728
-0.025509058 -0.042245146 0.021706989
-0.028874492 -0.040350139 0.017428394
0.029054152 -0.033172272 0.018184092
-0.028458601 -0.033172145 0.018178754
0.028252598 -0.026707115 0.018545428
-0.027657082 -0.02670702 0.018540239
0.027301975 -0.01984735 0.018240683
-0.026706383 -0.019847292 0.01823568
0.02606382 -0.013375895 0.017564716
-0.025468109 -0.013375877 0.017559942
0.024350472 -0.0045756921 0.016654247
0.020190539 -0.0022573159 0.021667363
-0.019595614 -0.0022573159 0.021663675
-0.023754612 -0.0045756833 0.01664979
0.023046566 0.0045445561 0.016536482
0.019497445 0.0042156414 0.021355027
-0.01890246 0.0042156414 0.021351468
-0.022450678 0.0045445473 0.016532267
0.020968782 0.01004013 0.018534107
-0.020373262 0.010040121 0.018530276
0.020845016 0.015794283 0.017715497
-0.020249354 0.015794273 0.017711695
0.019047193 0.020949524 0.0188096
-0.018451737 0.020949505 0.018806135
0.018997023 0.02766777 0.017088538
0.015000339 0.028457196 0.020530874
-0.014405203 0.028457189 0.020528153
-0.018401248 0.027667761 0.017085074
0.018957708 0.033474468 0.01562685
0.01260006 0.034758314 0.01976485
0.0053894296 0.036196899 0.021793451
-0.0047945371 0.036196891 0.021792509
-0.012004788 0.034758322 0.019762576
-0.018361669 0.033474457 0.015623399
0.012364244 0.039511699 0.017535331
0.0067121 0.042662568 0.017295137
0.00029760704 0.040464036 0.020060727
-0.0061163721 0.042662568 0.017293954
-0.011768562 0.039511688 0.017533094
0.00029790096 0.044282679 0.016886864
0.018580772 -0.065969557 0.010719655
-0.01863452 -0.065973014 0.010568501
0.019357271 -0.063964039 0.01289498
0.015029193 -0.062775269 0.012426197
-0.01436217 -0.062815048 0.012369565
-0.018487213 -0.06403438 0.012786171
0.025675127 -0.05711389 0.011875656
0.021954244 -0.059155121 0.014460309
0.011362074 -0.059060439 0.013581026
0.0066861887 -0.056587271 0.012312965
0.0002981647 -0.05480013 0.012761164
-0.0060897232 -0.056587216 0.012311782
-0.010765713 -0.059060398 0.013578977
-0.021357978 -0.059155121 0.014456284
-0.025078373 -0.05711389 0.011870939
0.030551963 -0.051165376 0.011407491
0.02797406 -0.051631525 0.015099588
-0.027377928 -0.051631492 0.015094449
-0.029955143 -0.051165357 0.011401873
0.031784479 -0.045714043 0.011710923
-0.031187734 -0.04571398 0.011705078
0.031788554 -0.039131545 0.011846443
-0.03119185 -0.039131463 0.011840586
0.03105709 -0.031917281 0.011866073
-0.030460358 -0.031917136 0.011860363
0.030207684 -0.025499182 0.011594892
-0.02961088 -0.025499092 0.01158935
0.029210545 -0.018829331 0.011096165
-0.028613625 -0.018829251 0.011090808
0.028144432 -0.01253656 0.010529304
-0.027547408 -0.012536542 0.010524143
0.027130859 -0.0066948342 0.010064106
-0.026533777 -0.0066948342 0.010059136
0.025849817 0.0020070702 0.010380829
-0.02525278 0.0020070702 0.010376094
0.0251086 0.0099571338 0.010478457
-0.0245116 0.0099571245 0.010473859
0.025179764 0.014889153 0.009990098
-0.024582651 0.014889145 0.0099854982
0.02532726 0.019462811 0.009263726
0.022485781 0.022390034 0.013922831
-0.021889407 0.022389995 0.013918719
-0.024730036 0.019462802 0.009259088
0.022381671 0.028835665 0.0125141
-0.021785058 0.028835654 0.012510009
0.022215504 0.033914126 0.011349647
-0.021618677 0.033914108 0.011345593
0.018378405 0.039912876 0.012993434
0.014207786 0.042765953 0.014174588
-0.013611482 0.042765953 0.014172011
-0.017781882 0.039912857 0.012990083
0.017059883 0.044723883 0.0091345254
0.013431638 0.045916554 0.01119632
0.0062221629 0.047799431 0.011711715
0.00029839101 0.048546668 0.011598316
-0.0056254119 0.047799431 0.011710618
-0.012834782 0.045916546 0.011193886
-0.016462645 0.044723883 0.0091314185
0.019127967 -0.065971002 0.0059376121
-0.018657405 -0.065974027 0.0066301976
0.023633372 -0.064186022 0.0043747886
0.020716816 -0.062413156 0.0049805292
0.014788809 -0.062322542 0.0059079276
-0.014190952 -0.062322531 0.0059052431
-0.019565003 -0.062972076 0.0045347018
-0.02290545 -0.064283334 0.0050001228
0.029719355 -0.055054542 0.0070111332
0.027159328 -0.057764173 0.0046564043
0.011247922 -0.059274547 0.0046688891
0.0076624523 -0.057168815 0.0062091341
0.00029877463 -0.055014279 0.0062735383
-0.0070648114 -0.057168767 0.0062077674
-0.010649899 -0.059274513 0.004666849
-0.026561236 -0.057764169 0.004651411
-0.02912171 -0.055054534 0.0070056599
0.031746008 -0.050912403 0.0045708232
-0.031147929 -0.050912376 0.0045649689
0.033098813 -0.045288805 0.0060954872
-0.032501031 -0.045288738 0.0060893879
0.03281372 -0.038655907 0.0055526523
-0.03221583 -0.03865581 0.0055466173
0.031485431 -0.031245694 0.0050607957
-0.030887449 -0.031245576 0.0050550164
0.030436834 -0.024866475 0.0047402079
-0.02983875 -0.024866385 0.004734613
0.029443789 -0.018267235 0.0042423871
-0.028845601 -0.018267188 0.0042369864
0.028630236 -0.011765976 0.0038170188
-0.028031977 -0.011765939 0.003811769
0.028021622 -0.0056880582 0.0036276386
-0.027423359 -0.0056880582 0.0036225012
0.027102387 0.0025331499 0.0042085983
-0.026482597 0.0025113658 0.004261198
0.026670041 0.009717335 0.0045031016
-0.026071927 0.0097173266 0.0044982149
0.026939061 0.014042299 0.0041713286
-0.026340883 0.01404229 0.0041664029
0.02653626 0.021756735 0.005219284
-0.025938274 0.021756725 0.005214429
0.025976989 0.029354753 0.004707566
-0.025378922 0.029354746 0.0047028158
0.024647208 0.033905424 0.0067254622
-0.024049526 0.033905417 0.0067209555
0.023632498 0.038923167 0.0049043098
0.021415785 0.041710831 0.0060939332
-0.020817984 0.041710831 0.006090024
-0.023034474 0.038923152 0.0048999973
0.01901653 0.045767136 0.0034109224
0.013554732 0.048661456 0.0051539419
0.0086371852 0.049060721 0.0087407865
-0.0080398824 0.049060721 0.0087392414
-0.012956766 0.048661448 0.0051514897
-0.018418243 0.045767128 0.0034074539
0.032572214 0.056088351 0.0025194723
0.02688936 0.0544236 0.0029045916
0.0061480179 0.051184412 0.0050694472
0.00029896013 0.051693469 0.0054564034
-0.0055500306 0.051184412 0.0050683683
-0.026291022 0.05442353 0.0028996977
-0.03197382 0.05608828 0.0025135251
0.038354501 0.06356179 0.0031019871
0.032912198 0.059936684 0.0033052075
0.027624743 0.060315225 0.0025291881
-0.027026357 0.060315154 0.0025241673
-0.032313965 0.059936594 0.0032991965
-0.037756242 0.063561715 0.0030949686
0.042828236 0.070044741 0.0029428434
0.038546361 0.066935375 0.0035999862
0.032391682 0.065579467 0.0029648526
-0.031793386 0.065579407 0.002958949
-0.037948221 0.066935278 0.0035929414
-0.042229973 0.070044719 0.0029349944
0.043787953 0.07325343 0.002659108
0.039904151 0.0722894 0.0030010897
-0.039305884 0.072289303 0.0029937851
-0.043189652 0.073253326 0.0026510814
0.023697043 -0.065960906 -0.0015800089
0.020646291 -0.065960906 -0.0010273531
0.024333198 -0.064437747 -0.00051136094
0.019413844 -0.062923551 -0.0012580031
0.014991172 -0.060037464 0.00057773106
-0.014392328 -0.060037456 0.00057499856
-0.019180987 -0.063995555 -0.0012594268
-0.023546616 -0.064764127 -0.00051289983
0.025901582 -0.057362098 -0.0012189243
0.012312151 -0.0580034 -0.0012930941
0.0069920877 -0.054923836 -0.00056133943
0.00029937254 -0.053914223 -0.00016521626
-0.0063932254 -0.054923777 -0.00056258333
-0.011713025 -0.058003355 -0.0012953361
-0.025302401 -0.057362091 -0.0012236852
0.030516447 -0.051404081 -0.0012525201
-0.029917296 -0.051404048 -0.0012581528
0.032163408 -0.045694016 -0.00072076992
-0.031564355 -0.045693945 -0.00072669762
0.032472391 -0.038769741 0.00041062274
-0.031873558 -0.038769633 0.0004046392
0.030937018 -0.03141043 -0.00050811324
-0.030337982 -0.031410322 -0.00051379058
0.029335877 -0.025036147 -0.00066075887
-0.028736793 -0.025036039 -0.00066613895
0.028236121 -0.018629007 -0.0014252835
-0.027636893 -0.018628966 -0.0014304601
0.02799052 -0.010909971 -0.002988142
-0.027390983 -0.010909966 -0.0029932626
0.027978776 -0.0049164491 -0.0014165282
-0.027256962 -0.0050475108 -0.0012712341
0.027909322 0.00062119518 -0.0011887942
-0.027310157 0.00062119518 -0.0011938893
0.026732044 0.0073301555 -0.0019366466
-0.026131185 0.0073309825 -0.0018803147
0.027144821 0.012969513 -0.0017610156
-0.026545545 0.012969505 -0.0017659799
0.027657546 0.020510849 -0.0020505176
-0.02705822 0.020510839 -0.0020555814
0.027032673 0.028834315 -0.0021663466
-0.026433351 0.028834298 -0.0021712985
0.025958225 0.035269659 -0.0012610585
-0.025359049 0.035269652 -0.0012658094
0.024030276 0.041409854 -0.0023318166
0.022412075 0.043275159 -0.00034729915
-0.02181308 0.04327514 -0.00035139007
-0.02343091 0.041409828 -0.002336211
0.026510203 0.046832465 -0.0011384626
0.019636821 0.047112256 0.00083154463
0.015116481 0.04910202 -0.0023673212
-0.014517117 0.049102008 -0.0023700648
-0.019038059 0.047112238 0.00082797505
-0.025911106 0.04683242 -0.001143295
0.033499677 0.052901458 -0.0016509645
0.02603215 0.053443942 0.0021217437
0.019563993 0.053093851 -0.0014066342
0.010515828 0.051109169 -0.0015111332
0.0056673368 0.052245121 -0.0011411504
0.000299548 0.052762475 -0.0010040426
-0.0050682039 0.05224511 -0.0011421428
-0.0099166268 0.051109169 -0.0015130263
-0.018964848 0.053093798 -0.0014101759
-0.023733441 0.053932443 0.0021524886
-0.032087233 0.052814465 -0.00091645384
0.039305054 0.06046322 -0.00066243974
0.025837714 0.062567256 -0.0014341515
0.022732029 0.058776166 -0.0018274673
-0.022132812 0.058776129 -0.0018315857
-0.025238585 0.062567167 -0.0014388465
-0.038706094 0.060463112 -0.00066962914
0.043910667 0.068063147 -0.0014010407
0.042383693 0.065967418 0.0013014509
0.032395687 0.069245026 -0.0004153412
0.029124049 0.066059865 -0.00096136297
-0.028525019 0.066059805 -0.00096666702
-0.031796768 0.069244973 -0.00042125658
-0.043057196 0.067713745 -0.00095862598
0.045290232 0.074608661 -0.0005305052
0.039386395 0.074701987 -0.00095274416
0.035506293 0.071992293 2.3540855e-005
-0.034907464 0.071992181 1.7054379e-005
-0.038787395 0.074701928 -0.0009599537
-0.044691361 0.074608572 -0.00053880998
0.045983698 0.07765194 0.00027893076
-0.045384996 0.077651851 0.00027049967
0.023777327 -0.065960906 -0.0053687557
0.021054557 -0.065960906 -0.0060162554
0.024317721 -0.065146551 -0.0065861689
0.021048207 -0.065114573 -0.0073243543
-0.020448558 -0.065202117 -0.0071928734
-0.023657516 -0.06523703 -0.0064553362
0.020010402 -0.056483809 -0.0060469355
0.014622534 -0.055259112 -0.0074126134
0.009867209 -0.054059397 -0.0060803816
-0.009267292 -0.054059334 -0.0060821651
-0.01402228 -0.055259064 -0.0074152877
-0.019410342 -0.056483783 -0.0060506091
0.027422899 -0.04988059 -0.0064761415
0.021019954 -0.049995679 -0.01030301
0.0055365679 -0.050744548 -0.0084403353
0.00029988214 -0.051760115 -0.0056108553
-0.0049362672 -0.050744496 -0.0084413067
-0.020419138 -0.049995627 -0.010306872
-0.026822785 -0.049880542 -0.0064811939
0.02680493 -0.041049585 -0.0088843722
-0.026204372 -0.041049484 -0.0088893026
0.031054186 -0.039469745 -0.0041042427
-0.030454503 -0.039469656 -0.0041099535
0.028043168 -0.032456607 -0.0067471419
-0.027442994 -0.032456506 -0.006752295
0.025535315 -0.024369592 -0.0079175653
-0.024934892 -0.02436951 -0.0079222452
0.026356837 -0.017322699 -0.0066131842
-0.025756652 -0.017322676 -0.0066180024
0.027129969 -0.0097394632 -0.0087462738
-0.026272682 -0.010036746 -0.0089757135
0.028586617 -0.0056055933 -0.0085983388
-0.027791331 -0.0057831514 -0.0076436219
-0.02890718 -0.0031998085 -0.0081890468
0.028272692 0.001442112 -0.0071887439
-0.027504124 0.0013375595 -0.005211778
-0.029106924 0.0016684012 -0.0084251855
0.026439192 0.0087421285 -0.0079461206
-0.026829235 0.0077480795 -0.0080979345
0.027396349 0.015075549 -0.0078306859
-0.026795955 0.015075531 -0.0078357011
0.027756689 0.022041559 -0.0083825085
-0.027156191 0.02204155 -0.0083875898
0.026742926 0.028255638 -0.0086252997
-0.02614239 0.028255621 -0.0086301947
0.025785754 0.035009541 -0.0068702665
-0.025185537 0.035009522 -0.0068749837
0.023645272 0.04071001 -0.0070058899
0.021705948 0.043330368 -0.00791624
-0.021105558 0.04333036 -0.0079202
-0.023045046 0.040710002 -0.0070102117
0.025697593 0.047167923 -0.0075614057
0.019223765 0.047840144 -0.0083421487
0.014280074 0.049043402 -0.0079730935
-0.013679677 0.049043402 -0.007975677
-0.018623311 0.047840137 -0.0083456347
-0.025097292 0.047167886 -0.0075660781
0.0325546 0.05369395 -0.0072587798
0.026513014 0.054048404 -0.009641679
0.020768071 0.053436343 -0.0075230189
0.010173962 0.051083893 -0.0070259697
0.0054310365 0.052142266 -0.0072289458
0.00030013698 0.052691244 -0.0073596095
-0.0048307772 0.052142266 -0.0072298911
-0.00957374 0.051083893 -0.0070277993
-0.020167792 0.053436298 -0.0075267851
-0.025912346 0.054048371 -0.0096464977
-0.031954397 0.053693861 -0.0072647221
0.038491353 0.061170939 -0.0060090851
0.03301996 0.059976425 -0.0089269709
0.026063008 0.060277246 -0.0075883516
-0.025462732 0.060277209 -0.0075930813
-0.032419462 0.059976347 -0.0089329956
-0.037891403 0.061170824 -0.0060161301
0.039461501 0.067202024 -0.0065153241
0.032437477 0.067303292 -0.0062091141
-0.031837478 0.067303203 -0.0062150317
-0.038861468 0.06720195 -0.0065225535
0.043529179 0.070852615 -0.0043284944
0.039990969 0.072354369 -0.0049391408
-0.039391235 0.072354287 -0.0049464651
-0.04292959 0.07085254 -0.0043364726
0.013299294 -0.050284654 -0.011573365
0.0096289851 -0.047654051 -0.013455337
0.0003003602 -0.048828054 -0.010703319
-0.0090277111 -0.047653988 -0.013457074
-0.012698337 -0.050284564 -0.01157579
0.019868121 -0.044388503 -0.012096286
0.012767929 -0.04312624 -0.014844193
0.0060430742 -0.044869691 -0.014642424
0.00030077706 -0.044347599 -0.014739136
-0.0054415483 -0.044869632 -0.01464349
-0.012166345 -0.043126151 -0.014846514
-0.019267006 -0.044388421 -0.012099924
0.023371691 -0.03456594 -0.011002289
0.020079263 -0.036554307 -0.01282517
0.016356992 -0.03898548 -0.01433787
0.0098874262 -0.037584312 -0.016795145
-0.0092854369 -0.037584223 -0.016796922
-0.015755456 -0.038985416 -0.014340846
-0.01947799 -0.036554229 -0.012828835
-0.022770735 -0.034565829 -0.011006562
0.020266768 -0.028401947 -0.012805902
0.014056369 -0.030974159 -0.016236767
-0.013454427 -0.03097412 -0.016239315
-0.019665459 -0.028401872 -0.012809602
0.019554075 -0.022715369 -0.013999121
-0.018952532 -0.022715311 -0.014002686
0.024531154 -0.015366662 -0.013970497
0.019418295 -0.017353753 -0.015000029
-0.018816549 -0.017353753 -0.015003553
-0.023260931 -0.016580679 -0.010796688
0.030003712 -0.0092852134 -0.016915971
0.025889188 -0.012130076 -0.012185266
0.019749042 -0.01207902 -0.014763412
0.015942596 -0.0084167011 -0.016204268
-0.019878559 -0.011760991 -0.015622358
-0.024999132 -0.011555681 -0.013302377
-0.030367095 -0.0094542773 -0.015992278
0.029798657 -0.0046485811 -0.014902276
0.02934048 -0.0048522502 -0.011550756
-0.031835463 -0.0039063785 -0.01225544
-0.035561834 -0.0029845657 -0.016541373
0.027699759 0.0018897236 -0.014618662
0.01910677 0.0048477128 -0.016909331
-0.03215684 0.0021779626 -0.012703105
0.024311248 0.0096018305 -0.013216784
0.021400999 0.0068399953 -0.015492114
-0.020403212 0.0068510328 -0.016089443
-0.024393095 0.0084691159 -0.013623944
-0.030895621 0.0061045871 -0.014659039
0.027051153 0.015984075 -0.014213253
-0.026449578 0.015984058 -0.014218197
0.027407551 0.021418303 -0.013378192
-0.026806129 0.021418292 -0.01338321
0.02556817 0.027625347 -0.014471287
-0.024966555 0.027625337 -0.014475962
0.024495404 0.034329474 -0.012511103
-0.023894142 0.034329455 -0.012515576
0.023263972 0.039490536 -0.010677153
0.021128524 0.040831998 -0.014218221
-0.020526957 0.040831979 -0.014222077
-0.022663077 0.03949051 -0.010681409
0.017891144 0.04537525 -0.012615042
0.013356855 0.047961812 -0.01400639
0.0072149113 0.050183054 -0.014692667
-0.0066132788 0.050183054 -0.014693948
-0.012755338 0.04796182 -0.014008807
-0.017289886 0.04537525 -0.012618295
0.0048937742 0.051342055 -0.012281269
0.00030068262 0.051623635 -0.013247895
-0.0042925822 0.051342055 -0.012282121
0.0060457787 -0.038272273 -0.017256757
0.00030107098 -0.038588773 -0.017561423
-0.0054436931 -0.038272217 -0.017257825
0.01059784 -0.028928861 -0.017966643
0.0067623206 -0.030795932 -0.01881332
0.00030125762 -0.032028388 -0.019341111
-0.0061599044 -0.0307959 -0.018814512
-0.0099955788 -0.028928803 -0.017968554
0.012810726 -0.023701614 -0.017822903
0.0056638252 -0.023544539 -0.0201011
0.00030139732 -0.023621026 -0.020734169
-0.0050611524 -0.023544529 -0.020102093
-0.012208478 -0.023701582 -0.017825224
0.029585881 -0.01580666 -0.023310654
0.026168326 -0.016840728 -0.020480901
0.020490427 -0.015359925 -0.020253124
0.012944004 -0.018341644 -0.018438036
0.0056976289 -0.016719796 -0.020694155
0.0003014532 -0.016852494 -0.021335699
-0.0050948472 -0.016719792 -0.020695157
-0.012341631 -0.018341631 -0.018440379
0.030410767 -0.0096513443 -0.021659603
0.02927768 -0.014114821 -0.019252963
0.018053794 -0.013201552 -0.019373797
0.013682813 -0.010252543 -0.019287109
0.0054916688 -0.010348955 -0.020755345
0.00030145489 -0.010482601 -0.021351635
-0.0048888805 -0.010348955 -0.020756312
-0.012184156 -0.010684289 -0.019162972
-0.019329831 -0.010495011 -0.018303214
-0.026223451 -0.0097058509 -0.020409971
-0.032968547 -0.0087544443 -0.020683305
0.030170904 -0.0064549865 -0.018877245
0.028917836 -0.0024238052 -0.019671595
0.013605191 -0.0035815316 -0.019728359
0.0074829757 -0.0042751152 -0.020206263
0.0013901764 -0.0041414113 -0.020564336
-0.0055858702 -0.0038009272 -0.020273052
-0.012998241 -0.0039734514 -0.019852206
-0.018205125 -0.0060017114 -0.020175403
-0.023893574 -0.0061463225 -0.023278892
-0.037219033 -0.0054618269 -0.020660024
0.026426038 0.0011617676 -0.020686397
0.019789677 0.0029749409 -0.019356506
0.012688403 0.0018638403 -0.019453222
0.0062680659 0.0021335632 -0.021176627
0.0013949893 0.00066787901 -0.020516312
-0.0051280623 0.0017863244 -0.020969139
-0.012583925 0.0022433908 -0.019830726
-0.018273771 0.0039152075 -0.020174585
-0.035212953 0.0026669072 -0.017521003
-0.038155071 0.00064491481 -0.021438884
0.019529151 0.0091317464 -0.020206185
0.014725634 0.0066206041 -0.021951875
-0.014122623 0.0066205864 -0.021954538
-0.01892646 0.0091317287 -0.020209745
-0.024864886 0.0073092477 -0.021170126
-0.03128013 0.0072130905 -0.020603091
-0.035461593 0.0060519893 -0.022991119
0.024540227 0.016020223 -0.019814122
0.022856757 0.012204807 -0.019993629
-0.022254106 0.012204798 -0.0199978
-0.023937613 0.016020214 -0.019818611
0.024821447 0.020863282 -0.020011609
0.022334056 0.023379087 -0.022414982
-0.021730967 0.023379078 -0.022419065
-0.024218803 0.020863265 -0.020016141
0.024000296 0.02689987 -0.018411087
0.021081923 0.02786251 -0.021849239
-0.020478945 0.02786251 -0.021853074
-0.023397936 0.02689987 -0.018415477
0.020397546 0.034340255 -0.019941416
-0.019794915 0.034340255 -0.01994513
0.018152623 0.040516533 -0.01932993
0.012392938 0.042822458 -0.022669308
-0.011789811 0.042822458 -0.022671547
-0.017550118 0.040516533 -0.019333234
0.011836814 0.046219546 -0.019065209
0.005680494 0.047944762 -0.020023433
0.00030135794 0.048438903 -0.020537198
-0.0050778701 0.047944743 -0.020024426
-0.011234359 0.046219546 -0.019067347
0.030270183 -0.01455887 -0.028487068
0.02661925 -0.01850529 -0.027648488
0.021409532 -0.01624796 -0.027075434
0.030191453 -0.011697736 -0.027021822
0.028542753 -0.0076972563 -0.028701663
0.017704971 -0.012602015 -0.027252322
0.01555833 -0.0090437382 -0.026643282
-0.028602285 -0.0079459818 -0.023893405
-0.033371437 -0.0082829073 -0.024963178
0.026976356 -0.0034856962 -0.025956511
0.019381391 -0.0038388357 -0.028875895
0.015177618 -0.0055156769 -0.026060818
-0.025607487 -0.0034734965 -0.025582744
-0.032339279 -0.0038984031 -0.028407285
-0.039002083 -0.005058642 -0.027431315
-0.041864313 -0.0022870167 -0.02826933
0.02190806 -0.0011165679 -0.026448965
0.0038734712 0.0036693916 -0.024417218
0.00030175329 0.003519255 -0.024691345
-0.0032700046 0.0036693916 -0.024417885
-0.024705676 0.0028798163 -0.026374964
-0.029311351 0.0027092414 -0.029559121
-0.040048823 0.0022169263 -0.027120067
-0.041937493 5.409122e-007 -0.029997751
0.013112808 0.0090302154 -0.025662264
0.0061226175 0.0075507765 -0.027974945
0.00030202931 0.0057004541 -0.0276697
-0.0055184965 0.0075507765 -0.027976027
-0.012509116 0.0090301977 -0.025664637
-0.028436435 0.0070218896 -0.025462963
-0.032750338 0.0069179893 -0.027745236
-0.037025243 0.0057542371 -0.025951035
0.019830871 0.014922296 -0.024344789
0.014322625 0.014296054 -0.028136844
-0.013718473 0.014296045 -0.028139433
-0.019227412 0.014922296 -0.024348406
0.019275982 0.021502506 -0.025455313
0.015690904 0.021281876 -0.028264914
-0.015086734 0.021281868 -0.028267762
-0.01867233 0.021502487 -0.025458828
0.018014146 0.027067 -0.024904249
0.012756084 0.027159715 -0.028324896
0.0071318923 0.031152532 -0.029494574
-0.0065275058 0.031152532 -0.029495833
-0.012151905 0.027159715 -0.028327204
-0.017410602 0.027066991 -0.024907531
0.012509285 0.035191268 -0.026387196
0.0055965912 0.035811994 -0.028683683
0.00030220058 0.036107037 -0.029519355
-0.0049923556 0.035811994 -0.028684666
-0.011905469 0.03519126 -0.026389442
0.012461005 0.039430257 -0.024992954
0.0057161464 0.042081006 -0.025905976
0.00030204328 0.04052604 -0.027932338
-0.0051124254 0.042080995 -0.025906973
-0.011857452 0.039430257 -0.02499521
0.00030179881 0.044312593 -0.025295839
0.029956669 -0.016240584 -0.03216495
0.027260236 -0.018508369 -0.034174792
0.021551747 -0.015269297 -0.032802466
0.029642295 -0.01349988 -0.032481771
0.027166627 -0.010434379 -0.034184229
0.019692818 -0.011343349 -0.034755837
0.025749413 -0.0058561834 -0.031105909
0.020474404 -0.0067188088 -0.032717966
-0.034734886 -0.0011814148 -0.031007055
-0.039749168 -0.0031092034 -0.031459626
-0.042086124 -0.0034294995 -0.031584129
-0.033398777 0.0036735805 -0.032168079
-0.039215192 0.0019971819 -0.033250824
-0.041908436 -0.00045198799 -0.032111224
0.0003022654 0.0086748814 -0.030218551
-0.033737324 0.0057016611 -0.032325111
-0.036220878 0.0058901445 -0.031595368
0.0065312819 0.013797779 -0.031959839
0.00030253895 0.013799693 -0.033171609
-0.0059264237 0.013797789 -0.03196099
0.012050513 0.021400072 -0.030904772
0.006602441 0.021418652 -0.0336973
0.00030274541 0.021097135 -0.035400432
-0.005997262 0.021418652 -0.033698462
-0.011445854 0.021400072 -0.030906947
0.0054864641 0.026208263 -0.032278057
0.0011056496 0.026909571 -0.032917935
-0.0044872724 0.026415572 -0.032161485
0.0036882199 0.031371694 -0.030250737
0.0003023076 0.031477205 -0.030674744
-0.0030836824 0.031371694 -0.030251363
0.02600473 -0.016536485 -0.03768691
0.022520402 -0.014796049 -0.038194641
0.024860395 -0.012835909 -0.037900899
0.021260459 -0.01235451 -0.037667196
