# .PCD v0.7 - Point Cloud Data file format
VERSION 0.7
FIELDS x y z
SIZE 4 4 4
TYPE F F F
COUNT 1 1 1
WIDTH 726
HEIGHT 1
VIEWPOINT 0 0 0 1 0 0 0
POINTS 726
DATA ascii
0.00054690853 -0.04399801 0.053285159
0.0071574999 -0.039798751 0.054579977
0.00054656441 -0.039030507 0.056981482
-0.006063927 -0.039798748 0.054578751
0.0071826372 -0.033074599 0.055171195
-5.6078701e-005 -0.033141222 0.057630818
-0.0068442142 -0.032594301 0.054578681
0.00054678868 -0.027224418 0.054579366
0.0040743952 -0.045850832 0.048216134
-0.0029796446 -0.045850832 0.048215486
0.0097812377 -0.041704576 0.048216667
-0.0086864838 -0.041704576 0.048214961
0.011961062 -0.034995787 0.048216872
-0.010866304 -0.034995787 0.048214756
0.0069278204 -0.02621386 0.048216403
-0.0029796446 -0.024140732 0.048215497
-0.0086864838 -0.028286979 0.048214961
0.0039864164 -0.045578524 0.042792883
-0.00059810048 -0.044524852 0.040618062
0.0088780168 -0.041047879 0.041162543
0.00032079945 -0.039648071 0.03858038
-0.0077819577 -0.041047879 0.041161004
0.011675246 -0.034995787 0.042793594
0.0082674334 -0.03171758 0.039485261
0.00032068987 -0.030382143 0.040270664
-0.0073226755 -0.031717569 0.039483812
-0.010579485 -0.034995787 0.042791538
0.0067887208 -0.025342287 0.041418236
-0.00023055183 -0.024517119 0.040233534
-0.0073211305 -0.025806893 0.040729463
0.018744992 -0.046910509 0.030844817
0.012193698 -0.049767006 0.031674527
0.0065087774 -0.047564175 0.033660784
0.00032112756 -0.046732776 0.034408957
-0.0058663418 -0.0475641 0.033659637
-0.011550889 -0.04976688 0.031672329
-0.018101992 -0.046910387 0.030841403
0.015701905 -0.042945348 0.03384053
0.0075595411 -0.039837547 0.036877774
0.00054852362 -0.039030503 0.035834663
-0.0050258138 -0.039435666 0.037261706
-0.012652871 -0.041793171 0.034971807
0.020169346 -0.033354182 0.033280972
0.01304681 -0.031587563 0.037160289
0.0059005604 -0.033648364 0.036389109
-5.3998989e-005 -0.033141222 0.035185214
-0.005671958 -0.032974657 0.03694199
-0.012404853 -0.031587493 0.037157919
-0.019526681 -0.033354051 0.033277284
0.019997315 -0.023192922 0.03256768
0.013334129 -0.023253996 0.036242805
0.00054842286 -0.028455272 0.03694256
-0.012691968 -0.023253933 0.036240388
-0.019354472 -0.023192849 0.032564029
0.018990137 -0.01584598 0.030773109
0.012836319 -0.01608227 0.034221251
0.006560945 -0.01609352 0.036455695
0.00032097741 -0.016042534 0.037419867
-0.0059188236 -0.016093511 0.036454536
-0.012193782 -0.016082251 0.034218933
-0.01834696 -0.015845947 0.030769652
0.012152924 -0.0098500056 0.031924188
0.0062654847 -0.0099288616 0.033934437
0.00032120716 -0.009856848 0.03481213
-0.0056229075 -0.0099288616 0.033933338
-0.011509962 -0.0098499954 0.031921994
0.0059478618 -0.0032441514 0.032202013
0.00032138603 -0.0033255264 0.032884799
-0.005304975 -0.0032441514 0.032200973
0.0057158335 0.0042422926 0.031110618
0.00032147957 0.0042791907 0.031872243
-0.005072746 0.0042422926 0.031109616
0.0003215404 0.011143233 0.031215321
0.011175154 -0.057516389 0.025125166
-0.010531141 -0.057516295 0.025123147
0.021103892 -0.054268852 0.025702495
0.015854014 -0.054118194 0.027469641
0.0074965549 -0.055008318 0.027486069
0.00032161336 -0.053299453 0.029034525
-0.0068529979 -0.055008247 0.027484739
-0.015210382 -0.054118082 0.027466761
-0.020459892 -0.054268762 0.025698645
0.024630168 -0.04852806 0.026190285
-0.023986276 -0.04852793 0.026185781
0.027674368 -0.03823927 0.025691289
0.023260949 -0.041171595 0.029911084
-0.022617733 -0.041171432 0.029906835
-0.027030323 -0.038239118 0.025686216
0.02641134 -0.030621972 0.027089689
-0.025767494 -0.030621862 0.027084854
0.025594778 -0.022648321 0.026776835
-0.024950856 -0.022648238 0.026772151
0.024322068 -0.015361258 0.025595546
-0.023677951 -0.015361234 0.025591098
0.020493301 -0.0092320442 0.026576202
-0.019849373 -0.0092320442 0.026572466
0.014194528 -0.0030215243 0.02895641
-0.013551031 -0.0030215243 0.028953839
0.013642015 0.00425517 0.028102946
-0.012998369 0.0042551602 0.028100476
0.015990362 0.011103095 0.026209036
0.0082627758 0.011136743 0.029507326
-0.0049999258 0.011164512 0.030361291
-0.012792603 0.01110603 0.027428284
0.013522299 0.017937304 0.026547253
0.0056880633 0.018272355 0.029417951
0.00032162273 0.018057447 0.030328169
-0.005044661 0.018272355 0.029416958
-0.012878363 0.017937286 0.026544806
0.013670539 0.02354865 0.025454376
0.0057686912 0.02398235 0.028243946
0.00032172413 0.023763752 0.029108729
-0.0051250719 0.02398235 0.028242938
-0.0130264 0.02354864 0.025451904
0.011202762 0.029005013 0.025412673
0.005816895 0.02924368 0.026991757
0.00032183673 0.028962154 0.027890464
-0.0051730429 0.02924367 0.02699074
-0.010558617 0.029005004 0.02541066
0.011228527 0.033990949 0.023988614
0.0058612665 0.036042985 0.024910942
0.00032208674 0.037101366 0.025194166
-0.0052170409 0.036042985 0.024909917
-0.010584131 0.033990931 0.023986591
0.019557452 -0.064894043 0.016993213
-0.018911742 -0.064894043 0.016989648
0.025784502 -0.060803656 0.017232567
0.02093607 -0.061173785 0.019758586
0.014601977 -0.062200829 0.019381974
0.0076399003 -0.059568737 0.01970507
-0.0069948933 -0.05956867 0.019703709
-0.013956781 -0.062200792 0.019379327
-0.020290906 -0.061173771 0.019754767
-0.025138831 -0.060803641 0.017227851
0.029077357 -0.053090051 0.01939274
0.024853474 -0.053942822 0.023305131
0.00032230801 -0.05704828 0.021477601
-0.027376344 -0.053303186 0.020365693
0.030102627 -0.044739246 0.021203864
-0.027634811 -0.045765571 0.023515902
-0.0312807 -0.043712646 0.018880758
0.031475328 -0.035936624 0.019699432
-0.030830149 -0.03593649 0.019693647
0.03060698 -0.028932704 0.02009088
-0.029961837 -0.028932603 0.020085257
0.029577136 -0.021501295 0.019760739
-0.028931912 -0.021501232 0.019755317
0.028235802 -0.014490552 0.01902844
-0.02759045 -0.014490533 0.019023268
0.026379675 -0.0049569998 0.018042101
0.021873083 -0.0024454254 0.023472976
-0.02122858 -0.0024454254 0.023468981
-0.02573416 -0.00495699 0.018037271
0.024967112 0.0049232692 0.017914521
0.02112223 0.0045669447 0.023134612
-0.020477664 0.0045669447 0.023130756
-0.024321565 0.0049232594 0.017909953
0.022716179 0.010876806 0.020078614
-0.022071032 0.010876797 0.020074464
0.022582099 0.017110471 0.019191787
-0.021936798 0.017110461 0.019187668
0.020634459 0.022695316 0.020377064
-0.019989381 0.022695297 0.020373311
0.020580107 0.029973414 0.018512581
0.016250364 0.030828629 0.022241779
-0.015605635 0.030828618 0.022238832
-0.019934684 0.029973404 0.018508827
0.020537516 0.036264002 0.016929086
0.013650063 0.037654839 0.02141192
0.0058385488 0.039213303 0.023609571
-0.0051940815 0.039213296 0.023608549
-0.013005186 0.037654847 0.021409454
-0.019891808 0.036263991 0.016925348
0.013394597 0.042804338 0.018996606
0.0072714407 0.046217781 0.018736398
0.00032240758 0.043836035 0.021732453
-0.0066260695 0.046217781 0.018735114
-0.012749273 0.042804327 0.018994184
0.000322726 0.047972899 0.018294102
0.020129168 -0.07146702 0.011612959
-0.020187397 -0.071470752 0.011449209
0.020970374 -0.069294363 0.01396956
0.016281625 -0.068006538 0.013461712
-0.015559017 -0.068049625 0.013400361
-0.020027813 -0.069370568 0.013851685
0.02781472 -0.061873373 0.012865294
0.023783762 -0.064084709 0.015665334
0.012308912 -0.063982137 0.014712777
0.0072433702 -0.061302874 0.013339045
0.00032301174 -0.059366804 0.013824593
-0.0065971999 -0.061302811 0.013337762
-0.011662854 -0.063982092 0.014710557
-0.023137808 -0.064084709 0.015660973
-0.027168237 -0.061873373 0.012860183
0.033097956 -0.055429149 0.012358115
0.030305229 -0.055934146 0.016357886
-0.02965942 -0.055934113 0.016352318
-0.032451402 -0.055429131 0.012352028
0.034433182 -0.049523544 0.012686832
-0.033786707 -0.049523477 0.0126805
0.034437597 -0.042392503 0.012833646
-0.03379117 -0.042392418 0.0128273
0.033645179 -0.034577053 0.012854911
-0.032998718 -0.034576893 0.012848726
0.032724991 -0.02762411 0.012561133
-0.032078452 -0.027624013 0.012555129
0.031644754 -0.020398442 0.012020845
-0.030998092 -0.020398354 0.01201504
0.030489799 -0.013581273 0.011406745
-0.029843023 -0.013581254 0.011401155
0.02939176 -0.0072527365 0.010902782
-0.028744921 -0.0072527365 0.010897396
0.028003966 0.002174326 0.011245897
-0.027357176 0.002174326 0.011240767
0.027200982 0.010786894 0.011351661
-0.026554232 0.010786884 0.01134668
0.027278075 0.016129915 0.010822605
-0.026631203 0.016129905 0.010817622
0.027437864 0.021084711 0.010035702
0.024359595 0.024255868 0.015083066
-0.023713524 0.024255827 0.015078612
-0.026790868 0.021084702 0.010030678
0.02424681 0.031238636 0.013556941
-0.02360048 0.031238623 0.013552508
0.024066795 0.036740299 0.01229545
-0.023420231 0.036740281 0.012291059
0.019909937 0.043238945 0.014076219
0.015391767 0.046329778 0.015355802
-0.014745771 0.046329778 0.01535301
-0.019263703 0.043238927 0.014072589
0.01848154 0.048450869 0.0098957345
0.01455094 0.04974293 0.012129346
0.0067406762 0.051782712 0.012687691
0.00032325691 0.052592218 0.012564842
-0.0060941954 0.051782712 0.012686501
-0.013904346 0.049742922 0.01212671
-0.017834529 0.048450869 0.0098923696
0.020721963 -0.071468584 0.0064324122
-0.020212188 -0.071471862 0.0071827131
0.025602818 -0.069534853 0.0047393539
0.022443214 -0.06761425 0.0053955731
0.016021209 -0.067516081 0.0064002546
-0.015373531 -0.067516074 0.0063973465
-0.021195419 -0.068219744 0.0049125929
-0.024814237 -0.069640271 0.0054167993
0.032195967 -0.059642415 0.0075953938
0.029422604 -0.062577851 0.0050444379
0.012185249 -0.064214088 0.0050579626
0.0083009889 -0.061932877 0.0067265616
0.00032367249 -0.059598796 0.006796333
-0.0076535451 -0.061932825 0.0067250808
-0.01153739 -0.064214051 0.0050557526
-0.028774669 -0.062577844 0.0050390284
-0.031548515 -0.059642404 0.0075894641
0.034391504 -0.055155098 0.0049517243
-0.033743586 -0.055155069 0.0049453829
0.035857044 -0.04906287 0.006603444
-0.035209447 -0.049062796 0.0065968367
0.035548195 -0.041877232 0.0060153729
-0.034900479 -0.041877124 0.006008835
0.034109216 -0.0338495 0.0054825279
-0.033461399 -0.033849373 0.0054762675
0.032973237 -0.026938679 0.0051352247
-0.032325309 -0.026938582 0.0051291641
0.031897437 -0.019789502 0.004595919
-0.031249398 -0.019789454 0.0045900685
0.031016085 -0.012746472 0.0041351034
-0.030367974 -0.012746434 0.0041294158
0.030356755 -0.0061620623 0.0039299414
-0.029708637 -0.0061620623 0.0039243759
0.029360916 0.0027442453 0.0045593143
-0.028689478 0.0027206461 0.0046162973
0.028892543 0.010527113 0.0048783598
-0.028244585 0.010527102 0.0048730657
0.02918398 0.015212489 0.0045189392
-0.028535955 0.01521248 0.0045136027
0.028747613 0.023569794 0.0056542237
-0.028099796 0.023569785 0.0056489646
0.028141737 0.031800982 0.0050998628
-0.027493831 0.03180097 0.0050947163
0.026701141 0.036730874 0.0072859167
-0.02605365 0.036730867 0.0072810347
0.025601869 0.042166762 0.005313002
0.023200434 0.045186732 0.0066017606
-0.022552814 0.045186732 0.0065975254
-0.024954012 0.042166743 0.0053083296
0.020601239 0.049581062 0.0036951655
0.014684292 0.052716572 0.0055834367
0.0093569495 0.053149112 0.009469185
-0.0087098721 0.053149112 0.0094675105
-0.014036496 0.052716564 0.0055807806
-0.019953096 0.049581051 0.0036914081
0.035286561 0.060762376 0.002729428
0.029130137 0.058958896 0.0031466407
0.006660352 0.055449776 0.0054919007
0.00032387348 0.056001253 0.0059111034
-0.0060125324 0.055449776 0.0054907319
-0.02848194 0.058958821 0.0031413389
-0.034638304 0.060762297 0.0027229851
0.041550703 0.068858601 0.0033604859
0.03565488 0.064931408 0.0035806412
0.029926801 0.065341488 0.0027399533
-0.029278552 0.065341413 0.0027345142
-0.035006795 0.064931311 0.0035741294
-0.040902592 0.068858519 0.0033528826
0.046397254 0.075881802 0.0031880799
0.041758556 0.072513312 0.0038999848
0.035090983 0.071044415 0.0032119232
-0.034442835 0.071044356 0.0032055276
-0.041110568 0.072513208 0.003892353
-0.045749135 0.075881772 0.0031795772
0.047436945 0.079357877 0.0028807002
0.043229494 0.078313515 0.0032511803
-0.042581372 0.07831341 0.0032432671
-0.046788786 0.079357766 0.0028720049
0.025671795 -0.071457639 -0.0017116762
0.022366814 -0.071457639 -0.0011129659
0.026360963 -0.069807552 -0.0005539743
0.021031661 -0.06816718 -0.0013628365
0.016240435 -0.065040581 0.00062587531
-0.015591688 -0.065040573 0.0006229151
-0.020779401 -0.069328509 -0.001364379
-0.025508832 -0.070161134 -0.00055564148
0.028060045 -0.062142272 -0.0013205013
0.013338162 -0.062837012 -0.0014008519
0.0075747613 -0.059500821 -0.00060811767
0.00032432022 -0.058407072 -0.00017898426
-0.0069259936 -0.05950075 -0.00060946518
-0.01268911 -0.06283696 -0.0014032805
-0.027410932 -0.06214226 -0.001325659
0.033059482 -0.055687752 -0.0013568967
-0.032410402 -0.055687711 -0.0013629987
0.034843691 -0.049501847 -0.00078083406
-0.034194715 -0.049501769 -0.0007872557
0.035178419 -0.042000551 0.00044484128
-0.034529682 -0.042000435 0.00043835907
0.033515099 -0.03402796 -0.00055045594
-0.032866146 -0.034027845 -0.00055660639
0.031780533 -0.02712249 -0.00071582204
-0.031131523 -0.027122375 -0.00072165043
0.030589128 -0.020181421 -0.0015440569
-0.029939964 -0.020181378 -0.001549665
0.03032306 -0.011819134 -0.0032371534
-0.029673563 -0.011819129 -0.0032427011
0.030310338 -0.0053261528 -0.0015345722
-0.029528374 -0.0054681362 -0.0013771702
0.030235097 0.00067296135 -0.0012878603
-0.029586002 0.00067296135 -0.0012933799
0.028959714 0.0079410011 -0.0020980337
-0.028308783 0.007941897 -0.0020370074
0.029406888 0.014050306 -0.0019077667
-0.028757671 0.014050296 -0.0019131447
0.029962339 0.022220084 -0.0022213939
-0.029313069 0.022220075 -0.0022268796
0.029285394 0.031237174 -0.0023468751
-0.028636126 0.031237153 -0.00235224
0.028121408 0.038208794 -0.0013661466
-0.0274723 0.038208786 -0.0013712933
0.026032796 0.044860672 -0.0025261343
0.024279745 0.046881419 -0.0003762407
-0.023630833 0.0468814 -0.00038067254
-0.025383484 0.044860642 -0.0025308949
0.028719386 0.050735168 -0.0012333343
0.021273222 0.051038273 0.00090083992
0.016376186 0.053193849 -0.0025645976
-0.015726876 0.053193837 -0.00256757
-0.020624561 0.051038254 0.0008969729
-0.028070362 0.05073512 -0.0012385695
0.036291312 0.057309907 -0.0017885448
0.028201493 0.057897601 0.0022985553
0.021194324 0.057518333 -0.0015238537
0.011392145 0.055368263 -0.0016370608
0.0061396146 0.056598876 -0.0012362461
0.0003245103 0.057159342 -0.0010877126
-0.005490554 0.056598864 -0.0012373212
-0.010743012 0.055368263 -0.0016391118
-0.02054525 0.057518277 -0.0015276904
-0.025711225 0.058426809 0.0023318622
-0.034761168 0.057215665 -0.00099282491
0.04258047 0.065501817 -0.00071764295
0.027990855 0.067781188 -0.001553664
0.024626363 0.063674174 -0.0019797562
-0.023977211 0.063674137 -0.0019842177
-0.027341798 0.067781091 -0.0015587503
-0.041931596 0.065501705 -0.00072543154
0.04756989 0.073735066 -0.0015177941
0.045915663 0.071464695 0.001409905
0.035095323 0.075015433 -0.00044995293
0.031551052 0.071564846 -0.0010414765
-0.030902101 0.071564779 -0.0010472225
-0.034446497 0.075015381 -0.00045636127
-0.046645291 0.073356546 -0.0010385114
0.049064413 0.080826044 -0.00057471392
0.042668592 0.080927148 -0.0010321394
0.03846515 0.07799165 2.5502592e-005
-0.037816416 0.077991523 1.8475575e-005
-0.042019673 0.080927081 -0.0010399497
-0.048415639 0.080825947 -0.00058371079
0.04981567 0.084122926 0.00030217494
-0.049167074 0.084122829 0.00029304129
0.025758768 -0.071457639 -0.0058161514
0.022809101 -0.071457639 -0.0065176096
0.026344197 -0.070575424 -0.0071350159
0.022802223 -0.070540778 -0.0079347165
-0.022152605 -0.070635624 -0.0077922791
-0.025628973 -0.070673443 -0.0069932807
0.021677934 -0.061190791 -0.0065508462
0.015841076 -0.059864037 -0.0080303308
0.010689476 -0.058564343 -0.0065870793
-0.010039565 -0.058564276 -0.0065890118
-0.015190803 -0.059863981 -0.0080332281
-0.02102787 -0.061190762 -0.0065548257
0.02970814 -0.054037303 -0.0070158192
0.022771616 -0.054161984 -0.011161594
0.0059979483 -0.054973256 -0.0091436962
0.00032487232 -0.056073453 -0.0060784258
-0.0053476226 -0.0549732 -0.0091447486
-0.022120731 -0.054161925 -0.011165777
-0.029058013 -0.054037251 -0.007021293
0.029038671 -0.044470377 -0.0096247355
-0.028388068 -0.044470273 -0.0096300775
0.033642031 -0.042758886 -0.0044462625
-0.032992378 -0.042758789 -0.0044524493
0.030380094 -0.03516132 -0.0073094028
-0.029729908 -0.035161212 -0.0073149856
0.027663255 -0.026400387 -0.0085773617
-0.027012797 -0.026400302 -0.0085824318
0.028553238 -0.018766256 -0.0071642827
-0.027903035 -0.018766232 -0.0071695019
0.029390797 -0.010551085 -0.0094751297
-0.028462071 -0.010873141 -0.0097236885
0.030968832 -0.0060727261 -0.0093148667
-0.030107271 -0.0062650801 -0.0082805902
-0.031316109 -0.0034664588 -0.0088714669
0.030628748 0.001562288 -0.0077878055
-0.029796131 0.0014490228 -0.0056460928
-0.0315325 0.0018074344 -0.0091272835
0.028642457 0.0094706388 -0.0086082965
-0.029065002 0.0083937524 -0.0087727616
0.029679377 0.016331842 -0.0084832422
-0.02902895 0.016331824 -0.0084886746
0.030069744 0.023878353 -0.0090810498
-0.029419206 0.023878343 -0.0090865549
0.028971501 0.030610273 -0.0093440739
-0.028320922 0.030610252 -0.0093493769
0.027934562 0.037926998 -0.0074427878
-0.02728433 0.037926979 -0.0074478984
0.025615709 0.044102509 -0.0075897137
0.023514774 0.046941228 -0.0085759256
-0.022864351 0.046941221 -0.0085802162
-0.024965465 0.044102497 -0.0075943954
0.027839057 0.051098578 -0.0081915222
0.020825742 0.05182682 -0.009037327
0.01547008 0.053130347 -0.0086375177
-0.014819649 0.053130347 -0.0086403163
-0.020175252 0.051826812 -0.0090411035
-0.027188731 0.05109854 -0.0081965839
0.03526748 0.058168441 -0.0078636771
0.02872243 0.058552433 -0.010445151
0.022498742 0.057889368 -0.0081499368
0.011021792 0.055340879 -0.0076114666
0.0058836224 0.056487452 -0.0078313574
0.00032514834 0.057082176 -0.0079729101
-0.0052333414 0.056487452 -0.0078323819
-0.010371551 0.055340879 -0.0076134484
-0.02184844 0.05788932 -0.0081540169
-0.028071707 0.058552396 -0.010450372
-0.03461726 0.058168344 -0.0078701153
0.041698966 0.066268511 -0.0065098414
0.035771623 0.064974457 -0.0096708843
0.028234923 0.065300345 -0.0082207136
-0.027584624 0.065300308 -0.0082258377
-0.03512108 0.064974368 -0.0096774111
-0.041049015 0.066268384 -0.0065174741
0.042749956 0.072802186 -0.007058267
0.035140596 0.072911896 -0.0067265397
-0.0344906 0.072911799 -0.0067329505
-0.042099919 0.072802104 -0.0070660994
0.047156606 0.076756991 -0.0046892017
0.043323547 0.078383893 -0.005350735
-0.042673837 0.078383803 -0.0053586704
-0.046507049 0.076756917 -0.0046978453
0.014407567 -0.054475036 -0.012537811
0.010431401 -0.051625215 -0.014576614
0.0003253902 -0.052897051 -0.011595261
-0.0097800195 -0.051625147 -0.014578495
-0.01375653 -0.054474939 -0.012540438
0.021523794 -0.048087545 -0.013104308
0.013831922 -0.046720088 -0.016081208
0.0065466631 -0.048608832 -0.015862625
0.0003258418 -0.048043232 -0.015967395
-0.0058950107 -0.048608761 -0.01586378
-0.013180205 -0.046719991 -0.016083721
-0.020872587 -0.048087452 -0.013108251
0.02531933 -0.037446432 -0.011919145
0.021752534 -0.039600499 -0.013893933
0.017720072 -0.042234268 -0.015532692
0.010711377 -0.040716335 -0.018194739
-0.010059223 -0.040716238 -0.018196665
-0.01706841 -0.042234201 -0.015535915
-0.021101154 -0.03960041 -0.013897904
-0.024668295 -0.037446313 -0.011923775
0.021955663 -0.030768773 -0.01387306
0.015227731 -0.033555336 -0.01758983
-0.014575629 -0.033555295 -0.01759259
-0.021304246 -0.030768692 -0.013877068
0.02118358 -0.024608316 -0.015165714
-0.020531908 -0.024608253 -0.015169576
0.026575414 -0.016647216 -0.015134704
0.021036485 -0.018799897 -0.016250031
-0.020384593 -0.018799897 -0.016253848
-0.025199341 -0.017962402 -0.011696411
0.032504018 -0.01005898 -0.018325634
0.028046617 -0.013140915 -0.013200704
0.021394793 -0.013085605 -0.015993696
0.017271144 -0.0091180913 -0.017554622
-0.021535102 -0.012741072 -0.016924221
-0.027082391 -0.012518654 -0.014410907
-0.032897685 -0.010242133 -0.017324965
0.032281876 -0.0050359629 -0.01614413
0.031785518 -0.0052566044 -0.012513318
-0.034488417 -0.0042319093 -0.013276725
-0.038525317 -0.0032332791 -0.017919818
0.03000807 0.0020472005 -0.015836883
0.020699 0.0052516889 -0.018318441
-0.034836575 0.0023594594 -0.013761695
0.026337184 0.010401982 -0.014318182
0.023184415 0.0074099945 -0.016783124
-0.022103477 0.0074219513 -0.017430229
-0.02642585 0.0091748741 -0.014759272
-0.033470254 0.0066133025 -0.015880624
0.029305412 0.017316081 -0.015397689
-0.028653705 0.01731606 -0.015403045
0.02969151 0.023203159 -0.01449304
-0.029039972 0.023203148 -0.014498476
0.027698848 0.029927455 -0.015677227
-0.0270471 0.029927446 -0.015682291
0.026536686 0.037190262 -0.013553694
-0.025885319 0.03719024 -0.01355854
0.025202636 0.042781409 -0.011566916
0.022889232 0.04423466 -0.015403072
-0.022237536 0.044234641 -0.015407249
-0.024551665 0.042781383 -0.011571526
0.019382073 0.049156517 -0.013666295
0.014469925 0.051958624 -0.015173588
0.0078161536 0.054364972 -0.015917053
-0.0071643847 0.054364972 -0.015918443
-0.013818282 0.051958635 -0.015176207
-0.018730709 0.049156517 -0.013669819
0.0053015887 0.055620555 -0.013304707
0.0003257395 0.0559256 -0.014351885
-0.0046502971 0.055620555 -0.01330563
0.0065495931 -0.041461624 -0.01869482
0.00032616023 -0.0418045 -0.019024873
-0.0058973338 -0.041461568 -0.018695977
0.011480992 -0.031339597 -0.019463861
0.0073258472 -0.033362258 -0.020381093
0.00032636241 -0.034697417 -0.020952867
-0.0066732294 -0.033362221 -0.020382388
-0.010828543 -0.031339534 -0.019465931
0.013878285 -0.025676746 -0.019308144
0.0061358106 -0.025506582 -0.021776192
0.00032651375 -0.025589444 -0.022462016
-0.0054829149 -0.025506573 -0.021777267
-0.013225849 -0.025676712 -0.019310657
0.03205137 -0.017123882 -0.025253208
0.028349016 -0.018244121 -0.022187643
0.02219796 -0.016639918 -0.021940883
0.01402267 -0.019870112 -0.019974537
0.0061724312 -0.018113112 -0.022418667
0.00032657429 -0.018256867 -0.023113674
-0.0055194176 -0.018113106 -0.022419751
-0.013370099 -0.019870097 -0.019977076
0.032944996 -0.010455621 -0.023464568
0.031717483 -0.015291056 -0.020857377
0.019558275 -0.01430168 -0.02098828
0.014823047 -0.011106921 -0.020894365
0.0059493077 -0.011211367 -0.022484956
0.00032657609 -0.01135615 -0.023130938
-0.0052962867 -0.011211367 -0.022486001
-0.013199502 -0.011574646 -0.020759884
-0.02094065 -0.011369593 -0.01982848
-0.028408736 -0.010514671 -0.022110799
-0.035715923 -0.0094839809 -0.022406913
0.032685146 -0.0069929017 -0.020450346
0.031327654 -0.0026257886 -0.021310892
0.014738956 -0.0038799921 -0.021372387
0.0081065567 -0.004631374 -0.021890117
0.0015060244 -0.0044865287 -0.022278029
-0.0060513592 -0.0041176709 -0.021962473
-0.014081427 -0.004304572 -0.021506554
-0.019722218 -0.006501853 -0.021856684
-0.025884705 -0.0066585154 -0.0252188
-0.040320612 -0.0059169792 -0.022381691
0.028628206 0.0012585814 -0.022410262
0.021438815 0.0032228525 -0.020969547
0.013745768 0.0020191602 -0.021074323
0.0067904037 0.0023113599 -0.022941343
0.0015112383 0.00072353554 -0.022226002
-0.0055554006 0.0019351847 -0.022716567
-0.013632584 0.0024303398 -0.021483283
-0.019796582 0.004241474 -0.021855798
-0.03814736 0.0028891491 -0.018981084
-0.041334659 0.00069865771 -0.023225456
0.021156579 0.0098927245 -0.021890033
0.01595277 0.0071723205 -0.023781195
-0.015299507 0.0071723009 -0.023784082
-0.020503664 0.0098927049 -0.021893887
-0.026936958 0.0079183513 -0.022934303
-0.033886801 0.007814181 -0.022320012
-0.038416721 0.0065563209 -0.024907043
0.026585244 0.017355239 -0.021465298
0.024761487 0.013221873 -0.021659764
-0.024108613 0.013221864 -0.021664282
-0.025932411 0.01735523 -0.021470159
0.0268899 0.022601888 -0.021679241
0.024195226 0.025327342 -0.024282895
-0.023541881 0.025327332 -0.024287321
-0.026237035 0.022601867 -0.021684153
0.026000317 0.029141525 -0.019945342
0.022838747 0.030184383 -0.023670008
-0.022185523 0.030184383 -0.023674164
-0.025347762 0.029141525 -0.019950097
0.02209734 0.037201941 -0.021603199
-0.02144449 0.037201941 -0.021607224
0.01966534 0.043892909 -0.020940756
0.013425682 0.046390992 -0.024558414
-0.012772295 0.046390992 -0.024560841
-0.019012628 0.043892909 -0.020944335
0.012823214 0.050071172 -0.020653976
0.0061538685 0.051940154 -0.021692051
0.00032647105 0.052475475 -0.022248628
-0.0055010254 0.051940136 -0.021693125
-0.012170555 0.050071172 -0.02065629
0.032792695 -0.015772108 -0.030860988
0.028837517 -0.020047395 -0.029952528
0.023193657 -0.017601956 -0.02933172
0.032707404 -0.012672545 -0.029273639
0.030921314 -0.0083386935 -0.031093465
0.019180384 -0.013652182 -0.029523347
0.016854856 -0.0097973831 -0.028863553
-0.030985806 -0.0086081466 -0.02588452
-0.036152385 -0.0089731496 -0.027043439
0.029224385 -0.0037761705 -0.028119551
0.020996505 -0.0041587385 -0.031282216
0.016442418 -0.0059753163 -0.02823255
-0.027741442 -0.0037629544 -0.027714636
-0.035034213 -0.0042232699 -0.030774558
-0.042252254 -0.0054801949 -0.029717255
-0.045353003 -0.0024776014 -0.030625107
0.023733731 -0.0012096151 -0.028653042
0.0041962601 0.0039751739 -0.026451984
0.00032689935 0.0038125261 -0.026748953
-0.0035425047 0.0039751739 -0.026452705
-0.02676448 0.0031198009 -0.028572876
-0.031753961 0.0029350112 -0.032022379
-0.043386225 0.00240167 -0.02938007
-0.045432281 5.8598812e-007 -0.032497562
0.014205541 0.0097827334 -0.027800784
0.0066328347 0.0081800073 -0.030306188
0.00032719842 0.006175492 -0.029975507
-0.005978371 0.0081800073 -0.03030736
-0.013551542 0.0097827138 -0.027803356
-0.030806135 0.007607046 -0.027584873
-0.035479531 0.0074944883 -0.030057337
-0.040110674 0.0062337564 -0.028113618
0.021483442 0.016165819 -0.02637352
0.015516175 0.015487391 -0.030481577
-0.014861678 0.015487381 -0.030484384
-0.020829694 0.016165819 -0.026377438
0.020882312 0.02329438 -0.027576588
0.016998479 0.023055365 -0.030620322
-0.016343961 0.023055354 -0.030623406
-0.020228356 0.023294361 -0.027580393
0.019515324 0.02932258 -0.026979601
0.013819089 0.029423021 -0.030685304
0.0077262162 0.033748575 -0.031952456
-0.0070714639 0.033748575 -0.031953815
-0.013164562 0.029423021 -0.030687802
-0.018861484 0.02932257 -0.026983155
0.013551725 0.038123872 -0.028586127
0.0060629738 0.038796324 -0.031073987
0.00032738395 0.039115954 -0.031979296
-0.0054083848 0.038796324 -0.031075053
-0.01289759 0.038123861 -0.028588559
0.013499421 0.042716108 -0.027075699
0.0061924914 0.045587752 -0.028064806
0.00032721355 0.043903206 -0.03026003
-0.0055384603 0.045587741 -0.028065884
-0.012845572 0.042716108 -0.027078142
0.00032694871 0.048005305 -0.027403822
0.032453056 -0.017593963 -0.03484536
0.02953192 -0.020050732 -0.037022687
0.023347724 -0.016541736 -0.035536002
0.032112483 -0.014624869 -0.035188582
0.02943051 -0.01130391 -0.03703291
0.021333884 -0.012288626 -0.037652154
0.027895195 -0.0063441982 -0.033698067
0.022180602 -0.0072787087 -0.035444461
-0.037629459 -0.0012798659 -0.033590972
-0.043061595 -0.0033683034 -0.034081258
-0.045593295 -0.0037152907 -0.034216139
-0.036182009 0.0039797118 -0.03484875
-0.042483125 0.0021636134 -0.036021724
-0.045400802 -0.00048965361 -0.034787156
0.00032745418 0.009397787 -0.03273676
-0.036548767 0.0061767995 -0.035018869
-0.039239284 0.0063809897 -0.034228314
0.0070755552 0.014947592 -0.034623157
0.00032775049 0.014949666 -0.035935909
-0.006420292 0.014947603 -0.034624401
0.013054721 0.023183411 -0.033480167
0.007152644 0.023203537 -0.036505405
0.00032797418 0.022855228 -0.038350463
-0.0064970334 0.023203537 -0.036506664
-0.012399673 0.023183411 -0.033482525
0.0059436695 0.028392283 -0.034967892
0.001197787 0.029152034 -0.035661094
-0.0048612109 0.028616866 -0.034841605
0.0039955713 0.033985998 -0.032771628
0.00032749987 0.034100302 -0.033230972
-0.0033406557 0.033985998 -0.032772306
0.028171789 -0.017914524 -0.040827483
0.024397101 -0.016029052 -0.041377522
0.026932092 -0.013905566 -0.041059304
0.023032162 -0.013384052 -0.040806126
