# .PCD v0.7 - Point Cloud Data file format
VERSION 0.7
FIELDS x y z
SIZE 4 4 4
TYPE F F F
COUNT 1 1 1
WIDTH 85
HEIGHT 1
VIEWPOINT 0 0 0 1 0 0 0
POINTS 85
DATA ascii
7.6227123e-005 -0.017782014 0.025293279
0.0037587697 -0.023837211 0.014039585
-0.0038142335 -0.023837173 0.014038883
0.001770233 -0.018534701 0.018423371
-0.0040501566 -0.01813028 0.018923573
0.0012096313 -0.010640711 0.017223449
-0.0041097365 -0.0098009147 0.015284998
0.0097502712 -0.034620043 0.0036869633
0.0086374609 -0.034611024 0.0043647429
-0.0094932672 -0.034616616 0.0039986894
0.011032988 -0.030554764 0.0061214203
0.0053642793 -0.030754166 0.0068036085
-0.0079956427 -0.031560186 0.0063388413
-0.013763597 -0.027469069 0.0057501574
0.013690547 -0.018659692 0.0080901217
0.0084755272 -0.02328112 0.012950509
-0.01040481 -0.019892216 0.012227224
-0.014345594 -0.018775098 0.0071428763
0.012283023 -0.0073580556 0.0074975095
0.0051601483 -0.0054438822 0.013074493
-0.0087905489 -0.0061393008 0.011155246
-0.013662937 -0.0087584928 0.0054614092
0.011324857 0.0037438273 0.006018403
0.0029063846 0.0035156123 0.012310873
-0.0073597543 0.00378282 0.0099704061
-0.012608993 0.0032022148 0.0037615008
0.010145123 0.01328839 0.0059263674
0.0033172772 0.014500078 0.0096054403
-0.0069853486 0.014152374 0.0079860678
0.0026819611 0.021486189 0.0052179657
-0.0047673327 0.021151397 0.0050842976
0.010468915 -0.034612533 -0.0015492225
0.0087572122 -0.034612611 0.0015313197
-0.0095047113 -0.034617122 0.0020295368
0.011602401 -0.032344967 -0.0026340866
0.0050545447 -0.030521931 -0.001327768
-0.0092904996 -0.032684751 -0.0021687262
-0.01414551 -0.02855215 -0.0011934815
0.013812047 -0.018325105 -0.0034456747
-0.011360819 -0.018146455 -0.006671777
-0.01469866 -0.018384591 -0.0023737345
0.013377919 -0.007163763 -0.0047788657
-0.011954224 -0.0091566555 -0.0069531342
-0.014027381 -0.006290745 -0.0042036073
0.013351572 0.0039050952 -0.0033132154
-0.011836348 0.0023686513 -0.007483555
-0.013743768 0.0032148026 -0.003588289
0.012605619 0.014591914 -0.002364195
-0.011780459 0.017544303 -0.0014784737
-0.013114264 0.013056647 -0.0028283242
0.020257955 0.02970304 -0.0029009469
0.01280086 0.024130773 -0.0028488161
0.0052605821 0.023433764 -0.0027256599
-0.0085629169 0.022857238 -0.0028676409
-0.015642038 0.026278827 -0.0028230175
0.022098949 0.035506923 -0.0013533644
0.01754549 0.033021439 -0.002168932
-0.020375755 0.034444418 -0.0016832789
-0.023303926 0.037191976 -0.0010593701
0.0034431813 -0.024529016 -0.0084089255
-0.0034944755 -0.024528984 -0.0084095718
0.0098636262 -0.019907262 -0.0076981466
0.0030365742 -0.018081985 -0.010038882
-0.0054704566 -0.017053962 -0.0098308092
0.012603243 -0.0084166341 -0.013944059
0.0056872852 -0.0063267574 -0.011690454
-0.0070344005 -0.0065975785 -0.01079337
-0.018526234 -0.0040071979 -0.014636653
0.011635289 0.0033782199 -0.01049973
0.0046683028 0.0018628798 -0.013536389
-0.0072838571 0.0024610274 -0.012741937
-0.017947135 0.00044858456 -0.015512758
0.011169887 0.013071936 -0.010528223
0.0046962835 0.013705019 -0.015430137
-0.0073214341 0.013642985 -0.013746235
-0.012910006 0.010841746 -0.0089136632
0.009913289 0.019559834 -0.0083747944
0.0038808838 0.021788936 -0.010820852
-0.0050715785 0.021543812 -0.010549746
0.0121825 -0.0093063414 -0.019689862
0.0010257591 0.0079890899 -0.018744227
-0.0021255051 0.007929232 -0.018572707
-0.01898917 0.00027909875 -0.018514052
0.00063715735 0.010229316 -0.018830489
-0.0020100786 0.009594243 -0.018703461
