# .PCD v0.7 - Point Cloud Data file format
VERSION 0.7
FIELDS x y z
SIZE 4 4 4
TYPE F F F
COUNT 1 1 1
WIDTH 85
HEIGHT 1
VIEWPOINT 0 0 0 1 0 0 0
POINTS 85
DATA ascii
9.9095254e-005 -0.023116617 0.032881264
0.0048864004 -0.030988373 0.01825146
-0.0049585034 -0.030988324 0.018250547
0.002301303 -0.024095111 0.023950381
-0.0052652033 -0.023569364 0.024600644
0.0015725207 -0.013832923 0.022390483
-0.0053426572 -0.012741189 0.019870497
0.012675352 -0.045006055 0.0047930521
0.011228698 -0.044994328 0.0056741657
-0.012341247 -0.0450016 0.0051982962
0.014342885 -0.039721191 0.0079578459
0.0069735628 -0.039980415 0.0088446904
-0.010394335 -0.041028239 0.008240493
-0.017892675 -0.035709787 0.0074752043
0.01779771 -0.024257598 0.010517158
0.011018185 -0.030265454 0.016835662
-0.013526252 -0.025859879 0.015895391
-0.018649271 -0.024407627 0.0092857387
0.01596793 -0.0095654717 0.009746762
0.0067081926 -0.0070770467 0.01699684
-0.011427714 -0.0079810908 0.014501819
-0.017761817 -0.011386041 0.0070998319
0.014722314 0.0048669754 0.0078239236
0.0037783 0.004570296 0.016004134
-0.0095676798 0.0049176659 0.012961527
-0.016391691 0.0041628792 0.0048899511
0.013188659 0.017274907 0.0077042771
0.0043124603 0.018850101 0.012487072
-0.009080953 0.018398086 0.010381888
0.0034865495 0.027932044 0.006783355
-0.0061975322 0.027496815 0.0066095865
0.013609589 -0.044996291 -0.0020139893
0.011384375 -0.044996392 0.0019907155
-0.012356124 -0.045002256 0.0026383977
0.01508312 -0.042048454 -0.0034243125
0.0065709078 -0.03967851 -0.0017260982
-0.012077649 -0.042490173 -0.0028193439
-0.018389164 -0.037117794 -0.0015515259
0.017955661 -0.023822635 -0.0044793771
-0.014769065 -0.023590392 -0.0086733093
-0.019108258 -0.023899967 -0.0030858547
0.017391294 -0.0093128914 -0.0062125251
-0.01554049 -0.011903652 -0.0090390742
-0.018235596 -0.0081779677 -0.0054646893
0.017357042 0.0050766235 -0.0043071797
-0.015387252 0.0030792467 -0.0097286208
-0.017866898 0.004179243 -0.0046647754
0.016387304 0.018969487 -0.0030734534
-0.015314597 0.022807593 -0.0019220157
-0.017048543 0.016973641 -0.0036768212
0.026335342 0.038613949 -0.0037712308
0.016641118 0.031370003 -0.0037034608
0.0068387566 0.030463891 -0.0035433576
-0.011131791 0.029714407 -0.0037279332
-0.020334648 0.034162473 -0.0036699227
0.02872863 0.046158999 -0.0017593737
0.022809135 0.042927869 -0.0028196115
-0.026488479 0.04477774 -0.0021882625
-0.030295102 0.048349567 -0.0013771812
0.0044761356 -0.031887718 -0.010931603
-0.0045428178 -0.031887677 -0.010932443
0.012822714 -0.025879439 -0.01000759
0.0039475462 -0.02350658 -0.013050546
-0.0071115931 -0.022170149 -0.012780052
0.016384216 -0.010941624 -0.018127276
0.0073934705 -0.0082247844 -0.015197589
-0.0091447206 -0.0085768513 -0.01403138
-0.024084102 -0.005209357 -0.019027648
0.015125874 0.0043916856 -0.013649648
0.0060687936 0.0024217437 -0.017597305
-0.0094690137 0.0031993354 -0.016564518
-0.023331275 0.00058315991 -0.020166585
0.014520853 0.016993515 -0.013686689
0.0061051683 0.017816523 -0.020059178
-0.0095178643 0.01773588 -0.017870104
-0.016783006 0.014094269 -0.011587761
0.012887275 0.025427783 -0.010887233
0.0050451485 0.028325615 -0.014067107
-0.0065930518 0.028006954 -0.01371467
0.01583725 -0.012098243 -0.02559682
0.0013334869 0.010385817 -0.024367495
-0.0027631565 0.010308001 -0.024144517
-0.024685919 0.00036282837 -0.024068266
0.0008283045 0.01329811 -0.024479635
-0.0026131021 0.012472516 -0.024314499
