# .PCD v0.7 - Point Cloud Data file format
VERSION 0.7
FIELDS x y z rgb
SIZE 4 4 4 4
TYPE F F F F
COUNT 1 1 1 1
WIDTH 901
HEIGHT 1
VIEWPOINT 0 0 0 1 0 0 0
POINTS 901
DATA ascii
0.027332813 0.0016734377 0.030679688 2.3509528e-038
0.02844844 0.0016734377 0.030679688 2.3509528e-038
0.02956406 0.0016734377 0.030679688 2.3509528e-038
0.030679688 0.0016734377 0.030679688 9.1476764e-041
-0.030679688 0.0027890615 -0.030679688 2.3418052e-038
-0.029564062 0.0027890615 -0.030679688 2.3418409e-038
-0.028448438 0.0027890615 -0.030679688 2.3418409e-038
-0.027332813 0.0027890615 -0.030679688 2.3418409e-038
-0.026217189 0.0027890615 -0.030679688 2.3418409e-038
-0.025101563 0.0027890615 -0.030679688 2.3418409e-038
-0.023985937 0.0027890615 -0.030679688 2.3418409e-038
-0.022870313 0.0027890615 -0.030679688 2.3418409e-038
-0.021754688 0.0027890615 -0.030679688 2.3418409e-038
-0.020639062 0.0027890615 -0.030679688 2.3418409e-038
-0.019523438 0.0027890615 -0.030679688 2.3418409e-038
-0.018407814 0.0027890615 -0.030679688 2.3418409e-038
-0.017292187 0.0027890615 -0.030679688 2.3418409e-038
-0.016176563 0.0027890615 -0.030679688 2.3418409e-038
-0.015060937 0.0027890615 -0.030679688 2.3418409e-038
-0.013945313 0.0027890615 -0.030679688 2.3418409e-038
-0.012829687 0.0027890615 -0.030679688 2.3418409e-038
-0.011714064 0.0027890615 -0.030679688 2.3418409e-038
-0.010598438 0.0027890615 -0.030679688 2.3418409e-038
-0.0094828121 0.0027890615 -0.030679688 2.3418409e-038
-0.0083671883 0.0027890615 -0.030679688 2.3418409e-038
-0.0072515626 0.0027890615 -0.030679688 2.3418409e-038
-0.0061359387 0.0027890615 -0.030679688 2.3418409e-038
-0.0050203111 0.0027890615 -0.030679688 2.3418409e-038
-0.0039046872 0.0027890615 -0.030679688 2.3418409e-038
-0.0027890634 0.0027890615 -0.030679688 2.3418409e-038
-0.0016734377 0.0027890615 -0.030679688 2.3418409e-038
-0.00055781379 0.0027890615 -0.030679688 2.3418409e-038
0.00055781379 0.0027890615 -0.030679688 2.3418409e-038
0.0016734377 0.0027890615 -0.030679688 2.3418409e-038
0.0027890615 0.0027890615 -0.030679688 2.3418409e-038
0.0039046854 0.0027890615 -0.030679688 2.3418409e-038
0.005020313 0.0027890615 -0.030679688 2.3418409e-038
0.0061359406 0.0027890615 -0.030679688 2.3418409e-038
0.0072515607 0.0027890615 -0.030679688 2.3418409e-038
0.0083671883 0.0027890615 -0.030679688 2.3418409e-038
0.0094828121 0.0027890615 -0.030679688 2.3418409e-038
0.01059844 0.0027890615 -0.030679688 2.3418409e-038
0.011714064 0.0027890615 -0.030679688 2.3418409e-038
0.012829687 0.0027890615 -0.030679688 2.3418409e-038
0.013945311 0.0027890615 -0.030679688 2.3418409e-038
0.015060939 0.0027890615 -0.030679688 2.3418409e-038
0.016176563 0.0027890615 -0.030679688 2.3418409e-038
0.017292187 0.0027890615 -0.030679688 2.3418409e-038
0.01840781 0.0027890615 -0.030679688 2.3418409e-038
0.019523438 0.0027890615 -0.030679688 2.3418409e-038
0.020639062 0.0027890615 -0.030679688 2.3418409e-038
0.02175469 0.0027890615 -0.030679688 2.3418409e-038
0.022870313 0.0027890615 -0.030679688 2.3418409e-038
0.023985941 0.0027890615 -0.030679688 2.3418409e-038
0.025101561 0.0027890615 -0.030679688 2.3418409e-038
0.026217189 0.0027890615 -0.030679688 2.3418409e-038
0.027332813 0.0027890615 -0.030679688 2.3418409e-038
0.02844844 0.0027890615 -0.030679688 2.3418409e-038
0.02956406 0.0027890615 -0.030679688 2.3418409e-038
0.030679688 0.0027890615 -0.030679688 9.1476764e-041
-0.030679688 0.0027890615 -0.029564062 2.3418052e-038
0.030679688 0.0027890615 -0.029564062 9.1476764e-041
-0.030679688 0.0027890615 -0.028448438 2.3418052e-038
0.030679688 0.0027890615 -0.028448438 9.1476764e-041
-0.030679688 0.0027890615 -0.027332813 2.3418052e-038
0.030679688 0.0027890615 -0.027332813 9.1476764e-041
-0.030679688 0.0027890615 -0.026217189 2.3418052e-038
0.030679688 0.0027890615 -0.026217189 9.1476764e-041
-0.030679688 0.0027890615 -0.025101563 2.3418052e-038
0.030679688 0.0027890615 -0.025101563 9.1476764e-041
-0.030679688 0.0027890615 -0.023985937 2.3418052e-038
0.030679688 0.0027890615 -0.023985937 9.1476764e-041
-0.030679688 0.0027890615 -0.022870313 2.3418052e-038
0.030679688 0.0027890615 -0.022870313 9.1476764e-041
-0.030679688 0.0027890615 -0.021754688 2.3418052e-038
0.030679688 0.0027890615 -0.021754688 9.1476764e-041
-0.030679688 0.0027890615 -0.020639062 2.3418052e-038
0.030679688 0.0027890615 -0.020639062 9.1476764e-041
-0.030679688 0.0027890615 -0.019523438 2.3418052e-038
0.030679688 0.0027890615 -0.019523438 9.1476764e-041
-0.030679688 0.0027890615 -0.018407814 2.3418052e-038
0.030679688 0.0027890615 -0.018407814 9.1476764e-041
-0.030679688 0.0027890615 -0.017292187 2.3418052e-038
0.030679688 0.0027890615 -0.017292187 9.1476764e-041
-0.030679688 0.0027890615 -0.016176563 2.3418052e-038
0.030679688 0.0027890615 -0.016176563 9.1476764e-041
-0.030679688 0.0027890615 -0.015060937 2.3418052e-038
0.030679688 0.0027890615 -0.015060937 9.1476764e-041
-0.030679688 0.0027890615 -0.013945313 2.3418052e-038
0.030679688 0.0027890615 -0.013945313 9.1476764e-041
-0.030679688 0.0027890615 -0.012829687 2.3418052e-038
0.030679688 0.0027890615 -0.012829687 9.1476764e-041
-0.030679688 0.0027890615 -0.011714064 2.3418052e-038
0.030679688 0.0027890615 -0.011714064 9.1476764e-041
-0.030679688 0.0027890615 -0.010598438 2.3418052e-038
0.030679688 0.0027890615 -0.010598438 9.1476764e-041
-0.030679688 0.0027890615 -0.0094828121 2.3418052e-038
0.030679688 0.0027890615 -0.0094828121 9.1476764e-041
-0.030679688 0.0027890615 -0.0083671883 2.3418052e-038
0.030679688 0.0027890615 -0.0083671883 9.1476764e-041
-0.030679688 0.0027890615 -0.0072515626 2.3418052e-038
0.030679688 0.0027890615 -0.0072515626 9.1476764e-041
-0.030679688 0.0027890615 -0.0061359387 2.3418052e-038
0.030679688 0.0027890615 -0.0061359387 9.1476764e-041
-0.030679688 0.0027890615 -0.0050203111 2.3418052e-038
0.030679688 0.0027890615 -0.0050203111 9.1476764e-041
-0.030679688 0.0027890615 -0.0039046872 2.3418052e-038
0.030679688 0.0027890615 -0.0039046872 9.1476764e-041
-0.030679688 0.0027890615 -0.0027890634 2.3418052e-038
0.030679688 0.0027890615 -0.0027890634 9.1476764e-041
-0.030679688 0.0027890615 -0.0016734377 2.3418052e-038
0.030679688 0.0027890615 -0.0016734377 9.1476764e-041
-0.030679688 0.0027890615 -0.00055781379 2.3418052e-038
0.030679688 0.0027890615 -0.00055781379 9.1476764e-041
-0.030679688 0.0027890615 0.00055781379 2.3418052e-038
0.030679688 0.0027890615 0.00055781379 9.1476764e-041
-0.030679688 0.0027890615 0.0016734377 2.3418052e-038
0.030679688 0.0027890615 0.0016734377 9.1476764e-041
-0.030679688 0.0027890615 0.0027890615 2.3418052e-038
0.030679688 0.0027890615 0.0027890615 9.1476764e-041
-0.030679688 0.0027890615 0.0039046854 2.3418052e-038
0.030679688 0.0027890615 0.0039046854 9.1476764e-041
-0.030679688 0.0027890615 0.005020313 2.3418052e-038
0.030679688 0.0027890615 0.005020313 9.1476764e-041
-0.030679688 0.0027890615 0.0061359406 2.3418052e-038
0.030679688 0.0027890615 0.0061359406 9.1476764e-041
-0.030679688 0.0027890615 0.0072515607 2.3418052e-038
0.030679688 0.0027890615 0.0072515607 9.1476764e-041
-0.030679688 0.0027890615 0.0083671883 2.3418052e-038
0.030679688 0.0027890615 0.0083671883 9.1476764e-041
-0.030679688 0.0027890615 0.0094828121 2.3418052e-038
0.030679688 0.0027890615 0.0094828121 9.1476764e-041
-0.030679688 0.0027890615 0.01059844 2.3418052e-038
0.030679688 0.0027890615 0.01059844 9.1476764e-041
-0.030679688 0.0027890615 0.011714064 2.3418052e-038
0.030679688 0.0027890615 0.011714064 9.1476764e-041
-0.030679688 0.0027890615 0.012829687 2.3418052e-038
0.030679688 0.0027890615 0.012829687 9.1476764e-041
-0.030679688 0.0027890615 0.013945311 2.3418052e-038
0.030679688 0.0027890615 0.013945311 9.1476764e-041
-0.030679688 0.0027890615 0.015060939 2.3418052e-038
0.030679688 0.0027890615 0.015060939 9.1476764e-041
-0.030679688 0.0027890615 0.016176563 2.3418052e-038
0.030679688 0.0027890615 0.016176563 9.1476764e-041
-0.030679688 0.0027890615 0.017292187 2.3418052e-038
0.030679688 0.0027890615 0.017292187 9.1476764e-041
-0.030679688 0.0027890615 0.01840781 2.3418052e-038
0.030679688 0.0027890615 0.01840781 9.1476764e-041
-0.030679688 0.0027890615 0.019523438 2.3418052e-038
0.030679688 0.0027890615 0.019523438 9.1476764e-041
-0.030679688 0.0027890615 0.020639062 2.3418052e-038
0.030679688 0.0027890615 0.020639062 9.1476764e-041
-0.030679688 0.0027890615 0.02175469 2.3418052e-038
0.030679688 0.0027890615 0.02175469 9.1476764e-041
-0.030679688 0.0027890615 0.022870313 2.3418052e-038
0.030679688 0.0027890615 0.022870313 9.1476764e-041
-0.030679688 0.0027890615 0.023985941 2.3418052e-038
0.030679688 0.0027890615 0.023985941 9.1476764e-041
-0.030679688 0.0027890615 0.025101561 2.3418052e-038
0.030679688 0.0027890615 0.025101561 9.1476764e-041
-0.030679688 0.0027890615 0.026217189 2.3418052e-038
0.030679688 0.0027890615 0.026217189 9.1476764e-041
-0.030679688 0.0027890615 0.027332813 2.3418052e-038
0.030679688 0.0027890615 0.027332813 9.1476764e-041
-0.030679688 0.0027890615 0.02844844 2.3418052e-038
0.030679688 0.0027890615 0.02844844 9.1476764e-041
-0.030679688 0.0027890615 0.02956406 2.3418052e-038
0.030679688 0.0027890615 0.02956406 9.1476764e-041
-0.030679688 0.0027890615 0.030679688 2.3418052e-038
-0.029564062 0.0027890615 0.030679688 2.3509528e-038
-0.028448438 0.0027890615 0.030679688 2.3509528e-038
-0.027332813 0.0027890615 0.030679688 2.3509528e-038
-0.026217189 0.0027890615 0.030679688 2.3509528e-038
-0.025101563 0.0027890615 0.030679688 2.3509528e-038
-0.023985937 0.0027890615 0.030679688 2.3509528e-038
-0.022870313 0.0027890615 0.030679688 2.3509528e-038
-0.021754688 0.0027890615 0.030679688 2.3509528e-038
-0.020639062 0.0027890615 0.030679688 2.3509528e-038
-0.019523438 0.0027890615 0.030679688 2.3509528e-038
-0.018407814 0.0027890615 0.030679688 2.3509528e-038
-0.017292187 0.0027890615 0.030679688 2.3509528e-038
-0.016176563 0.0027890615 0.030679688 2.3509528e-038
-0.015060937 0.0027890615 0.030679688 2.3509528e-038
-0.013945313 0.0027890615 0.030679688 2.3509528e-038
-0.012829687 0.0027890615 0.030679688 2.3509528e-038
-0.011714064 0.0027890615 0.030679688 2.3509528e-038
-0.010598438 0.0027890615 0.030679688 2.3509528e-038
-0.0094828121 0.0027890615 0.030679688 2.3509528e-038
-0.0083671883 0.0027890615 0.030679688 2.3509528e-038
-0.0072515626 0.0027890615 0.030679688 2.3509528e-038
-0.0061359387 0.0027890615 0.030679688 2.3509528e-038
-0.0050203111 0.0027890615 0.030679688 2.3509528e-038
-0.0039046872 0.0027890615 0.030679688 2.3509528e-038
-0.0027890634 0.0027890615 0.030679688 2.3509528e-038
-0.0016734377 0.0027890615 0.030679688 2.3509528e-038
-0.00055781379 0.0027890615 0.030679688 2.3509528e-038
0.00055781379 0.0027890615 0.030679688 2.3509528e-038
0.0016734377 0.0027890615 0.030679688 2.3509528e-038
0.0027890615 0.0027890615 0.030679688 2.3509528e-038
0.0039046854 0.0027890615 0.030679688 2.3509528e-038
0.005020313 0.0027890615 0.030679688 2.3509528e-038
0.0061359406 0.0027890615 0.030679688 2.3509528e-038
0.0072515607 0.0027890615 0.030679688 2.3509528e-038
0.0083671883 0.0027890615 0.030679688 2.3509528e-038
0.0094828121 0.0027890615 0.030679688 2.3509528e-038
0.01059844 0.0027890615 0.030679688 2.3509528e-038
0.011714064 0.0027890615 0.030679688 2.3509528e-038
0.012829687 0.0027890615 0.030679688 2.3509528e-038
0.013945311 0.0027890615 0.030679688 2.3509528e-038
0.015060939 0.0027890615 0.030679688 2.3509528e-038
0.016176563 0.0027890615 0.030679688 2.3509528e-038
0.017292187 0.0027890615 0.030679688 2.3509528e-038
0.01840781 0.0027890615 0.030679688 2.3509528e-038
0.019523438 0.0027890615 0.030679688 2.3509528e-038
0.020639062 0.0027890615 0.030679688 2.3509528e-038
0.02175469 0.0027890615 0.030679688 2.3509528e-038
0.022870313 0.0027890615 0.030679688 2.3509528e-038
0.023985941 0.0027890615 0.030679688 2.3509528e-038
0.025101561 0.0027890615 0.030679688 2.3509528e-038
0.026217189 0.0027890615 0.030679688 2.3509528e-038
0.027332813 0.0027890615 0.030679688 2.3509528e-038
0.02844844 0.0027890615 0.030679688 2.3509528e-038
0.02956406 0.0027890615 0.030679688 2.3509528e-038
0.030679688 0.0027890615 0.030679688 9.1476764e-041
-0.030679688 0.0039046854 -0.030679688 2.3418052e-038
-0.029564062 0.0039046854 -0.030679688 2.3418409e-038
-0.028448438 0.0039046854 -0.030679688 2.3418409e-038
-0.027332813 0.0039046854 -0.030679688 2.3418409e-038
-0.026217189 0.0039046854 -0.030679688 2.3418409e-038
-0.025101563 0.0039046854 -0.030679688 2.3418409e-038
-0.023985937 0.0039046854 -0.030679688 2.3418409e-038
-0.022870313 0.0039046854 -0.030679688 2.3418409e-038
-0.021754688 0.0039046854 -0.030679688 2.3418409e-038
-0.020639062 0.0039046854 -0.030679688 2.3418409e-038
-0.019523438 0.0039046854 -0.030679688 2.3418409e-038
-0.018407814 0.0039046854 -0.030679688 2.3418409e-038
-0.017292187 0.0039046854 -0.030679688 2.3418409e-038
-0.016176563 0.0039046854 -0.030679688 2.3418409e-038
-0.015060937 0.0039046854 -0.030679688 2.3418409e-038
-0.013945313 0.0039046854 -0.030679688 2.3418409e-038
-0.012829687 0.0039046854 -0.030679688 2.3418409e-038
-0.011714064 0.0039046854 -0.030679688 2.3418409e-038
-0.010598438 0.0039046854 -0.030679688 2.3418409e-038
-0.0094828121 0.0039046854 -0.030679688 2.3418409e-038
-0.0083671883 0.0039046854 -0.030679688 2.3418409e-038
-0.0072515626 0.0039046854 -0.030679688 2.3418409e-038
-0.0061359387 0.0039046854 -0.030679688 2.3418409e-038
-0.0050203111 0.0039046854 -0.030679688 2.3418409e-038
-0.0039046872 0.0039046854 -0.030679688 2.3418409e-038
-0.0027890634 0.0039046854 -0.030679688 2.3418409e-038
-0.0016734377 0.0039046854 -0.030679688 2.3418409e-038
-0.00055781379 0.0039046854 -0.030679688 2.3418409e-038
0.00055781379 0.0039046854 -0.030679688 2.3418409e-038
0.0016734377 0.0039046854 -0.030679688 2.3418409e-038
0.0027890615 0.0039046854 -0.030679688 2.3418409e-038
0.0039046854 0.0039046854 -0.030679688 2.3418409e-038
0.005020313 0.0039046854 -0.030679688 2.3418409e-038
0.0061359406 0.0039046854 -0.030679688 2.3418409e-038
0.0072515607 0.0039046854 -0.030679688 2.3418409e-038
0.0083671883 0.0039046854 -0.030679688 2.3418409e-038
0.0094828121 0.0039046854 -0.030679688 2.3418409e-038
0.01059844 0.0039046854 -0.030679688 2.3418409e-038
0.011714064 0.0039046854 -0.030679688 2.3418409e-038
0.012829687 0.0039046854 -0.030679688 2.3418409e-038
0.013945311 0.0039046854 -0.030679688 2.3418409e-038
0.015060939 0.0039046854 -0.030679688 2.3418409e-038
0.016176563 0.0039046854 -0.030679688 2.3418409e-038
0.017292187 0.0039046854 -0.030679688 2.3418409e-038
0.01840781 0.0039046854 -0.030679688 2.3418409e-038
0.019523438 0.0039046854 -0.030679688 2.3418409e-038
0.020639062 0.0039046854 -0.030679688 2.3418409e-038
0.02175469 0.0039046854 -0.030679688 2.3418409e-038
0.022870313 0.0039046854 -0.030679688 2.3418409e-038
0.023985941 0.0039046854 -0.030679688 2.3418409e-038
0.025101561 0.0039046854 -0.030679688 2.3418409e-038
0.026217189 0.0039046854 -0.030679688 2.3418409e-038
0.027332813 0.0039046854 -0.030679688 2.3418409e-038
0.02844844 0.0039046854 -0.030679688 2.3418409e-038
0.02956406 0.0039046854 -0.030679688 2.3418409e-038
0.030679688 0.0039046854 -0.030679688 9.1476764e-041
-0.030679688 0.0039046854 -0.029564062 2.3418052e-038
0.030679688 0.0039046854 -0.029564062 9.1476764e-041
-0.030679688 0.0039046854 -0.028448438 2.3418052e-038
0.030679688 0.0039046854 -0.028448438 9.1476764e-041
-0.030679688 0.0039046854 -0.027332813 2.3418052e-038
0.030679688 0.0039046854 -0.027332813 9.1476764e-041
-0.030679688 0.0039046854 -0.026217189 2.3418052e-038
0.030679688 0.0039046854 -0.026217189 9.1476764e-041
-0.030679688 0.0039046854 -0.025101563 2.3418052e-038
0.030679688 0.0039046854 -0.025101563 9.1476764e-041
-0.030679688 0.0039046854 -0.023985937 2.3418052e-038
0.030679688 0.0039046854 -0.023985937 9.1476764e-041
-0.030679688 0.0039046854 -0.022870313 2.3418052e-038
0.030679688 0.0039046854 -0.022870313 9.1476764e-041
-0.030679688 0.0039046854 -0.021754688 2.3418052e-038
0.030679688 0.0039046854 -0.021754688 9.1476764e-041
-0.030679688 0.0039046854 -0.020639062 2.3418052e-038
0.030679688 0.0039046854 -0.020639062 9.1476764e-041
-0.030679688 0.0039046854 -0.019523438 2.3418052e-038
0.030679688 0.0039046854 -0.019523438 9.1476764e-041
-0.030679688 0.0039046854 -0.018407814 2.3418052e-038
0.030679688 0.0039046854 -0.018407814 9.1476764e-041
-0.030679688 0.0039046854 -0.017292187 2.3418052e-038
0.030679688 0.0039046854 -0.017292187 9.1476764e-041
-0.030679688 0.0039046854 -0.016176563 2.3418052e-038
0.030679688 0.0039046854 -0.016176563 9.1476764e-041
-0.030679688 0.0039046854 -0.015060937 2.3418052e-038
0.030679688 0.0039046854 -0.015060937 9.1476764e-041
-0.030679688 0.0039046854 -0.013945313 2.3418052e-038
0.030679688 0.0039046854 -0.013945313 9.1476764e-041
-0.030679688 0.0039046854 -0.012829687 2.3418052e-038
0.030679688 0.0039046854 -0.012829687 9.1476764e-041
-0.030679688 0.0039046854 -0.011714064 2.3418052e-038
0.030679688 0.0039046854 -0.011714064 9.1476764e-041
-0.030679688 0.0039046854 -0.010598438 2.3418052e-038
0.030679688 0.0039046854 -0.010598438 9.1476764e-041
-0.030679688 0.0039046854 -0.0094828121 2.3418052e-038
0.030679688 0.0039046854 -0.0094828121 9.1476764e-041
-0.030679688 0.0039046854 -0.0083671883 2.3418052e-038
0.030679688 0.0039046854 -0.0083671883 9.1476764e-041
-0.030679688 0.0039046854 -0.0072515626 2.3418052e-038
0.030679688 0.0039046854 -0.0072515626 9.1476764e-041
-0.030679688 0.0039046854 -0.0061359387 2.3418052e-038
0.030679688 0.0039046854 -0.0061359387 9.1476764e-041
-0.030679688 0.0039046854 -0.0050203111 2.3418052e-038
0.030679688 0.0039046854 -0.0050203111 9.1476764e-041
-0.030679688 0.0039046854 -0.0039046872 2.3418052e-038
0.030679688 0.0039046854 -0.0039046872 9.1476764e-041
-0.030679688 0.0039046854 -0.0027890634 2.3418052e-038
0.030679688 0.0039046854 -0.0027890634 9.1476764e-041
-0.030679688 0.0039046854 -0.0016734377 2.3418052e-038
0.030679688 0.0039046854 -0.0016734377 9.1476764e-041
-0.030679688 0.0039046854 -0.00055781379 2.3418052e-038
0.030679688 0.0039046854 -0.00055781379 9.1476764e-041
-0.030679688 0.0039046854 0.00055781379 2.3418052e-038
0.030679688 0.0039046854 0.00055781379 9.1476764e-041
-0.030679688 0.0039046854 0.0016734377 2.3418052e-038
0.030679688 0.0039046854 0.0016734377 9.1476764e-041
-0.030679688 0.0039046854 0.0027890615 2.3418052e-038
0.030679688 0.0039046854 0.0027890615 9.1476764e-041
-0.030679688 0.0039046854 0.0039046854 2.3418052e-038
0.030679688 0.0039046854 0.0039046854 9.1476764e-041
-0.030679688 0.0039046854 0.005020313 2.3418052e-038
0.030679688 0.0039046854 0.005020313 9.1476764e-041
-0.030679688 0.0039046854 0.0061359406 2.3418052e-038
0.030679688 0.0039046854 0.0061359406 9.1476764e-041
-0.030679688 0.0039046854 0.0072515607 2.3418052e-038
0.030679688 0.0039046854 0.0072515607 9.1476764e-041
-0.030679688 0.0039046854 0.0083671883 2.3418052e-038
0.030679688 0.0039046854 0.0083671883 9.1476764e-041
-0.030679688 0.0039046854 0.0094828121 2.3418052e-038
0.030679688 0.0039046854 0.0094828121 9.1476764e-041
-0.030679688 0.0039046854 0.01059844 2.3418052e-038
0.030679688 0.0039046854 0.01059844 9.1476764e-041
-0.030679688 0.0039046854 0.011714064 2.3418052e-038
0.030679688 0.0039046854 0.011714064 9.1476764e-041
-0.030679688 0.0039046854 0.012829687 2.3418052e-038
0.030679688 0.0039046854 0.012829687 9.1476764e-041
-0.030679688 0.0039046854 0.013945311 2.3418052e-038
0.030679688 0.0039046854 0.013945311 9.1476764e-041
-0.030679688 0.0039046854 0.015060939 2.3418052e-038
0.030679688 0.0039046854 0.015060939 9.1476764e-041
-0.030679688 0.0039046854 0.016176563 2.3418052e-038
0.030679688 0.0039046854 0.016176563 9.1476764e-041
-0.030679688 0.0039046854 0.017292187 2.3418052e-038
0.030679688 0.0039046854 0.017292187 9.1476764e-041
-0.030679688 0.0039046854 0.01840781 2.3418052e-038
0.030679688 0.0039046854 0.01840781 9.1476764e-041
-0.030679688 0.0039046854 0.019523438 2.3418052e-038
0.030679688 0.0039046854 0.019523438 9.1476764e-041
-0.030679688 0.0039046854 0.020639062 2.3418052e-038
0.030679688 0.0039046854 0.020639062 9.1476764e-041
-0.030679688 0.0039046854 0.02175469 2.3418052e-038
0.030679688 0.0039046854 0.02175469 9.1476764e-041
-0.030679688 0.0039046854 0.022870313 2.3418052e-038
0.030679688 0.0039046854 0.022870313 9.1476764e-041
-0.030679688 0.0039046854 0.023985941 2.3418052e-038
0.030679688 0.0039046854 0.023985941 9.1476764e-041
-0.030679688 0.0039046854 0.025101561 2.3418052e-038
0.030679688 0.0039046854 0.025101561 9.1476764e-041
-0.030679688 0.0039046854 0.026217189 2.3418052e-038
0.030679688 0.0039046854 0.026217189 9.1476764e-041
-0.030679688 0.0039046854 0.027332813 2.3418052e-038
0.030679688 0.0039046854 0.027332813 9.1476764e-041
-0.030679688 0.0039046854 0.02844844 2.3418052e-038
0.030679688 0.0039046854 0.02844844 9.1476764e-041
-0.030679688 0.0039046854 0.02956406 2.3418052e-038
0.030679688 0.0039046854 0.02956406 9.1476764e-041
-0.030679688 0.0039046854 0.030679688 2.3418052e-038
-0.029564062 0.0039046854 0.030679688 2.3509528e-038
-0.028448438 0.0039046854 0.030679688 2.3509528e-038
-0.027332813 0.0039046854 0.030679688 2.3509528e-038
-0.026217189 0.0039046854 0.030679688 2.3509528e-038
-0.025101563 0.0039046854 0.030679688 2.3509528e-038
-0.023985937 0.0039046854 0.030679688 2.3509528e-038
-0.022870313 0.0039046854 0.030679688 2.3509528e-038
-0.021754688 0.0039046854 0.030679688 2.3509528e-038
-0.020639062 0.0039046854 0.030679688 2.3509528e-038
-0.019523438 0.0039046854 0.030679688 2.3509528e-038
-0.018407814 0.0039046854 0.030679688 2.3509528e-038
-0.017292187 0.0039046854 0.030679688 2.3509528e-038
-0.016176563 0.0039046854 0.030679688 2.3509528e-038
-0.015060937 0.0039046854 0.030679688 2.3509528e-038
-0.013945313 0.0039046854 0.030679688 2.3509528e-038
-0.012829687 0.0039046854 0.030679688 2.3509528e-038
-0.011714064 0.0039046854 0.030679688 2.3509528e-038
-0.010598438 0.0039046854 0.030679688 2.3509528e-038
-0.0094828121 0.0039046854 0.030679688 2.3509528e-038
-0.0083671883 0.0039046854 0.030679688 2.3509528e-038
-0.0072515626 0.0039046854 0.030679688 2.3509528e-038
-0.0061359387 0.0039046854 0.030679688 2.3509528e-038
-0.0050203111 0.0039046854 0.030679688 2.3509528e-038
-0.0039046872 0.0039046854 0.030679688 2.3509528e-038
-0.0027890634 0.0039046854 0.030679688 2.3509528e-038
-0.0016734377 0.0039046854 0.030679688 2.3509528e-038
-0.00055781379 0.0039046854 0.030679688 2.3509528e-038
0.00055781379 0.0039046854 0.030679688 2.3509528e-038
0.0016734377 0.0039046854 0.030679688 2.3509528e-038
0.0027890615 0.0039046854 0.030679688 2.3509528e-038
0.0039046854 0.0039046854 0.030679688 2.3509528e-038
0.005020313 0.0039046854 0.030679688 2.3509528e-038
0.0061359406 0.0039046854 0.030679688 2.3509528e-038
0.0072515607 0.0039046854 0.030679688 2.3509528e-038
0.0083671883 0.0039046854 0.030679688 2.3509528e-038
0.0094828121 0.0039046854 0.030679688 2.3509528e-038
0.01059844 0.0039046854 0.030679688 2.3509528e-038
0.011714064 0.0039046854 0.030679688 2.3509528e-038
0.012829687 0.0039046854 0.030679688 2.3509528e-038
0.013945311 0.0039046854 0.030679688 2.3509528e-038
0.015060939 0.0039046854 0.030679688 2.3509528e-038
0.016176563 0.0039046854 0.030679688 2.3509528e-038
0.017292187 0.0039046854 0.030679688 2.3509528e-038
0.01840781 0.0039046854 0.030679688 2.3509528e-038
0.019523438 0.0039046854 0.030679688 2.3509528e-038
0.020639062 0.0039046854 0.030679688 2.3509528e-038
0.02175469 0.0039046854 0.030679688 2.3509528e-038
0.022870313 0.0039046854 0.030679688 2.3509528e-038
0.023985941 0.0039046854 0.030679688 2.3509528e-038
0.025101561 0.0039046854 0.030679688 2.3509528e-038
0.026217189 0.0039046854 0.030679688 2.3509528e-038
0.027332813 0.0039046854 0.030679688 2.3509528e-038
0.02844844 0.0039046854 0.030679688 2.3509528e-038
0.02956406 0.0039046854 0.030679688 2.3509528e-038
0.030679688 0.0039046854 0.030679688 9.1476764e-041
-0.030679688 0.005020313 -0.030679688 2.3418052e-038
-0.029564062 0.005020313 -0.030679688 2.3418409e-038
-0.028448438 0.005020313 -0.030679688 2.3418409e-038
-0.027332813 0.005020313 -0.030679688 2.3418409e-038
-0.026217189 0.005020313 -0.030679688 2.3418409e-038
-0.025101563 0.005020313 -0.030679688 2.3418409e-038
-0.023985937 0.005020313 -0.030679688 2.3418409e-038
-0.022870313 0.005020313 -0.030679688 2.3418409e-038
-0.021754688 0.005020313 -0.030679688 2.3418409e-038
-0.020639062 0.005020313 -0.030679688 2.3418409e-038
-0.019523438 0.005020313 -0.030679688 2.3418409e-038
-0.018407814 0.005020313 -0.030679688 2.3418409e-038
-0.017292187 0.005020313 -0.030679688 2.3418409e-038
-0.016176563 0.005020313 -0.030679688 2.3418409e-038
-0.015060937 0.005020313 -0.030679688 2.3418409e-038
-0.013945313 0.005020313 -0.030679688 2.3418409e-038
-0.012829687 0.005020313 -0.030679688 2.3418409e-038
-0.011714064 0.005020313 -0.030679688 2.3418409e-038
-0.010598438 0.005020313 -0.030679688 2.3418409e-038
-0.0094828121 0.005020313 -0.030679688 2.3418409e-038
-0.0083671883 0.005020313 -0.030679688 2.3418409e-038
-0.0072515626 0.005020313 -0.030679688 2.3418409e-038
-0.0061359387 0.005020313 -0.030679688 2.3418409e-038
-0.0050203111 0.005020313 -0.030679688 2.3418409e-038
-0.0039046872 0.005020313 -0.030679688 2.3418409e-038
-0.0027890634 0.005020313 -0.030679688 2.3418409e-038
-0.0016734377 0.005020313 -0.030679688 2.3418409e-038
-0.00055781379 0.005020313 -0.030679688 2.3418409e-038
0.00055781379 0.005020313 -0.030679688 2.3418409e-038
0.0016734377 0.005020313 -0.030679688 2.3418409e-038
0.0027890615 0.005020313 -0.030679688 2.3418409e-038
0.0039046854 0.005020313 -0.030679688 2.3418409e-038
0.005020313 0.005020313 -0.030679688 2.3418409e-038
0.0061359406 0.005020313 -0.030679688 2.3418409e-038
0.0072515607 0.005020313 -0.030679688 2.3418409e-038
0.0083671883 0.005020313 -0.030679688 2.3418409e-038
0.0094828121 0.005020313 -0.030679688 2.3418409e-038
0.01059844 0.005020313 -0.030679688 2.3418409e-038
0.011714064 0.005020313 -0.030679688 2.3418409e-038
0.012829687 0.005020313 -0.030679688 2.3418409e-038
0.013945311 0.005020313 -0.030679688 2.3418409e-038
0.015060939 0.005020313 -0.030679688 2.3418409e-038
0.016176563 0.005020313 -0.030679688 2.3418409e-038
0.017292187 0.005020313 -0.030679688 2.3418409e-038
0.01840781 0.005020313 -0.030679688 2.3418409e-038
0.019523438 0.005020313 -0.030679688 2.3418409e-038
0.020639062 0.005020313 -0.030679688 2.3418409e-038
0.02175469 0.005020313 -0.030679688 2.3418409e-038
0.022870313 0.005020313 -0.030679688 2.3418409e-038
0.023985941 0.005020313 -0.030679688 2.3418409e-038
0.025101561 0.005020313 -0.030679688 2.3418409e-038
0.026217189 0.005020313 -0.030679688 2.3418409e-038
0.027332813 0.005020313 -0.030679688 2.3418409e-038
0.02844844 0.005020313 -0.030679688 2.3418409e-038
0.02956406 0.005020313 -0.030679688 2.3418409e-038
0.030679688 0.005020313 -0.030679688 9.1476764e-041
-0.030679688 0.005020313 -0.029564062 2.3418052e-038
0.030679688 0.005020313 -0.029564062 9.1476764e-041
-0.030679688 0.005020313 -0.028448438 2.3418052e-038
0.030679688 0.005020313 -0.028448438 9.1476764e-041
-0.030679688 0.005020313 -0.027332813 2.3418052e-038
0.030679688 0.005020313 -0.027332813 9.1476764e-041
-0.030679688 0.005020313 -0.026217189 2.3418052e-038
0.030679688 0.005020313 -0.026217189 9.1476764e-041
-0.030679688 0.005020313 -0.025101563 2.3418052e-038
0.030679688 0.005020313 -0.025101563 9.1476764e-041
-0.030679688 0.005020313 -0.023985937 2.3418052e-038
0.030679688 0.005020313 -0.023985937 9.1476764e-041
-0.030679688 0.005020313 -0.022870313 2.3418052e-038
0.030679688 0.005020313 -0.022870313 9.1476764e-041
-0.030679688 0.005020313 -0.021754688 2.3418052e-038
0.030679688 0.005020313 -0.021754688 9.1476764e-041
-0.030679688 0.005020313 -0.020639062 2.3418052e-038
0.030679688 0.005020313 -0.020639062 9.1476764e-041
-0.030679688 0.005020313 -0.019523438 2.3418052e-038
0.030679688 0.005020313 -0.019523438 9.1476764e-041
-0.030679688 0.005020313 -0.018407814 2.3418052e-038
0.030679688 0.005020313 -0.018407814 9.1476764e-041
-0.030679688 0.005020313 -0.017292187 2.3418052e-038
0.030679688 0.005020313 -0.017292187 9.1476764e-041
-0.030679688 0.005020313 -0.016176563 2.3418052e-038
0.030679688 0.005020313 -0.016176563 9.1476764e-041
-0.030679688 0.005020313 -0.015060937 2.3418052e-038
0.030679688 0.005020313 -0.015060937 9.1476764e-041
-0.030679688 0.005020313 -0.013945313 2.3418052e-038
0.030679688 0.005020313 -0.013945313 9.1476764e-041
-0.030679688 0.005020313 -0.012829687 2.3418052e-038
0.030679688 0.005020313 -0.012829687 9.1476764e-041
-0.030679688 0.005020313 -0.011714064 2.3418052e-038
0.030679688 0.005020313 -0.011714064 9.1476764e-041
-0.030679688 0.005020313 -0.010598438 2.3418052e-038
0.030679688 0.005020313 -0.010598438 9.1476764e-041
-0.030679688 0.005020313 -0.0094828121 2.3418052e-038
0.030679688 0.005020313 -0.0094828121 9.1476764e-041
-0.030679688 0.005020313 -0.0083671883 2.3418052e-038
0.030679688 0.005020313 -0.0083671883 9.1476764e-041
-0.030679688 0.005020313 -0.0072515626 2.3418052e-038
0.030679688 0.005020313 -0.0072515626 9.1476764e-041
-0.030679688 0.005020313 -0.0061359387 2.3418052e-038
0.030679688 0.005020313 -0.0061359387 9.1476764e-041
-0.030679688 0.005020313 -0.0050203111 2.3418052e-038
0.030679688 0.005020313 -0.0050203111 9.1476764e-041
-0.030679688 0.005020313 -0.0039046872 2.3418052e-038
0.030679688 0.005020313 -0.0039046872 9.1476764e-041
-0.030679688 0.005020313 -0.0027890634 2.3418052e-038
0.030679688 0.005020313 -0.0027890634 9.1476764e-041
-0.030679688 0.005020313 -0.0016734377 2.3418052e-038
0.030679688 0.005020313 -0.0016734377 9.1476764e-041
-0.030679688 0.005020313 -0.00055781379 2.3418052e-038
0.030679688 0.005020313 -0.00055781379 9.1476764e-041
-0.030679688 0.005020313 0.00055781379 2.3418052e-038
0.030679688 0.005020313 0.00055781379 9.1476764e-041
-0.030679688 0.005020313 0.0016734377 2.3418052e-038
0.030679688 0.005020313 0.0016734377 9.1476764e-041
-0.030679688 0.005020313 0.0027890615 2.3418052e-038
0.030679688 0.005020313 0.0027890615 9.1476764e-041
-0.030679688 0.005020313 0.0039046854 2.3418052e-038
0.030679688 0.005020313 0.0039046854 9.1476764e-041
-0.030679688 0.005020313 0.005020313 2.3418052e-038
0.030679688 0.005020313 0.005020313 9.1476764e-041
-0.030679688 0.005020313 0.0061359406 2.3418052e-038
0.030679688 0.005020313 0.0061359406 9.1476764e-041
-0.030679688 0.005020313 0.0072515607 2.3418052e-038
0.030679688 0.005020313 0.0072515607 9.1476764e-041
-0.030679688 0.005020313 0.0083671883 2.3418052e-038
0.030679688 0.005020313 0.0083671883 9.1476764e-041
-0.030679688 0.005020313 0.0094828121 2.3418052e-038
0.030679688 0.005020313 0.0094828121 9.1476764e-041
-0.030679688 0.005020313 0.01059844 2.3418052e-038
0.030679688 0.005020313 0.01059844 9.1476764e-041
-0.030679688 0.005020313 0.011714064 2.3418052e-038
0.030679688 0.005020313 0.011714064 9.1476764e-041
-0.030679688 0.005020313 0.012829687 2.3418052e-038
0.030679688 0.005020313 0.012829687 9.1476764e-041
-0.030679688 0.005020313 0.013945311 2.3418052e-038
0.030679688 0.005020313 0.013945311 9.1476764e-041
-0.030679688 0.005020313 0.015060939 2.3418052e-038
0.030679688 0.005020313 0.015060939 9.1476764e-041
-0.030679688 0.005020313 0.016176563 2.3418052e-038
0.030679688 0.005020313 0.016176563 9.1476764e-041
-0.030679688 0.005020313 0.017292187 2.3418052e-038
0.030679688 0.005020313 0.017292187 9.1476764e-041
-0.030679688 0.005020313 0.01840781 2.3418052e-038
0.030679688 0.005020313 0.01840781 9.1476764e-041
-0.030679688 0.005020313 0.019523438 2.3418052e-038
0.030679688 0.005020313 0.019523438 9.1476764e-041
-0.030679688 0.005020313 0.020639062 2.3418052e-038
0.030679688 0.005020313 0.020639062 9.1476764e-041
-0.030679688 0.005020313 0.02175469 2.3418052e-038
0.030679688 0.005020313 0.02175469 9.1476764e-041
-0.030679688 0.005020313 0.022870313 2.3418052e-038
0.030679688 0.005020313 0.022870313 9.1476764e-041
-0.030679688 0.005020313 0.023985941 2.3418052e-038
0.030679688 0.005020313 0.023985941 9.1476764e-041
-0.030679688 0.005020313 0.025101561 2.3418052e-038
0.030679688 0.005020313 0.025101561 9.1476764e-041
-0.030679688 0.005020313 0.026217189 2.3418052e-038
0.030679688 0.005020313 0.026217189 9.1476764e-041
-0.030679688 0.005020313 0.027332813 2.3418052e-038
0.030679688 0.005020313 0.027332813 9.1476764e-041
-0.030679688 0.005020313 0.02844844 2.3418052e-038
0.030679688 0.005020313 0.02844844 9.1476764e-041
-0.030679688 0.005020313 0.02956406 2.3418052e-038
0.030679688 0.005020313 0.02956406 9.1476764e-041
-0.030679688 0.005020313 0.030679688 2.3418052e-038
-0.029564062 0.005020313 0.030679688 2.3509528e-038
-0.028448438 0.005020313 0.030679688 2.3509528e-038
-0.027332813 0.005020313 0.030679688 2.3509528e-038
-0.026217189 0.005020313 0.030679688 2.3509528e-038
-0.025101563 0.005020313 0.030679688 2.3509528e-038
-0.023985937 0.005020313 0.030679688 2.3509528e-038
-0.022870313 0.005020313 0.030679688 2.3509528e-038
-0.021754688 0.005020313 0.030679688 2.3509528e-038
-0.020639062 0.005020313 0.030679688 2.3509528e-038
-0.019523438 0.005020313 0.030679688 2.3509528e-038
-0.018407814 0.005020313 0.030679688 2.3509528e-038
-0.017292187 0.005020313 0.030679688 2.3509528e-038
-0.016176563 0.005020313 0.030679688 2.3509528e-038
-0.015060937 0.005020313 0.030679688 2.3509528e-038
-0.013945313 0.005020313 0.030679688 2.3509528e-038
-0.012829687 0.005020313 0.030679688 2.3509528e-038
-0.011714064 0.005020313 0.030679688 2.3509528e-038
-0.010598438 0.005020313 0.030679688 2.3509528e-038
-0.0094828121 0.005020313 0.030679688 2.3509528e-038
-0.0083671883 0.005020313 0.030679688 2.3509528e-038
-0.0072515626 0.005020313 0.030679688 2.3509528e-038
-0.0061359387 0.005020313 0.030679688 2.3509528e-038
-0.0050203111 0.005020313 0.030679688 2.3509528e-038
-0.0039046872 0.005020313 0.030679688 2.3509528e-038
-0.0027890634 0.005020313 0.030679688 2.3509528e-038
-0.0016734377 0.005020313 0.030679688 2.3509528e-038
-0.00055781379 0.005020313 0.030679688 2.3509528e-038
0.00055781379 0.005020313 0.030679688 2.3509528e-038
0.0016734377 0.005020313 0.030679688 2.3509528e-038
0.0027890615 0.005020313 0.030679688 2.3509528e-038
0.0039046854 0.005020313 0.030679688 2.3509528e-038
0.005020313 0.005020313 0.030679688 2.3509528e-038
0.0061359406 0.005020313 0.030679688 2.3509528e-038
0.0072515607 0.005020313 0.030679688 2.3509528e-038
0.0083671883 0.005020313 0.030679688 2.3509528e-038
0.0094828121 0.005020313 0.030679688 2.3509528e-038
0.01059844 0.005020313 0.030679688 2.3509528e-038
0.011714064 0.005020313 0.030679688 2.3509528e-038
0.012829687 0.005020313 0.030679688 2.3509528e-038
0.013945311 0.005020313 0.030679688 2.3509528e-038
0.015060939 0.005020313 0.030679688 2.3509528e-038
0.016176563 0.005020313 0.030679688 2.3509528e-038
0.017292187 0.005020313 0.030679688 2.3509528e-038
0.01840781 0.005020313 0.030679688 2.3509528e-038
0.019523438 0.005020313 0.030679688 2.3509528e-038
0.020639062 0.005020313 0.030679688 2.3509528e-038
0.02175469 0.005020313 0.030679688 2.3509528e-038
0.022870313 0.005020313 0.030679688 2.3509528e-038
0.023985941 0.005020313 0.030679688 2.3509528e-038
0.025101561 0.005020313 0.030679688 2.3509528e-038
0.026217189 0.005020313 0.030679688 2.3509528e-038
0.027332813 0.005020313 0.030679688 2.3509528e-038
0.02844844 0.005020313 0.030679688 2.3509528e-038
0.02956406 0.005020313 0.030679688 2.3509528e-038
0.030679688 0.005020313 0.030679688 9.1476764e-041
-0.030679688 0.0061359406 -0.030679688 2.3418052e-038
-0.029564062 0.0061359406 -0.030679688 2.3418409e-038
-0.028448438 0.0061359406 -0.030679688 2.3418409e-038
-0.027332813 0.0061359406 -0.030679688 2.3418409e-038
-0.026217189 0.0061359406 -0.030679688 2.3418409e-038
-0.025101563 0.0061359406 -0.030679688 2.3418409e-038
-0.023985937 0.0061359406 -0.030679688 2.3418409e-038
-0.022870313 0.0061359406 -0.030679688 2.3418409e-038
-0.021754688 0.0061359406 -0.030679688 2.3418409e-038
-0.020639062 0.0061359406 -0.030679688 2.3418409e-038
-0.019523438 0.0061359406 -0.030679688 2.3418409e-038
-0.018407814 0.0061359406 -0.030679688 2.3418409e-038
-0.017292187 0.0061359406 -0.030679688 2.3418409e-038
-0.016176563 0.0061359406 -0.030679688 2.3418409e-038
-0.015060937 0.0061359406 -0.030679688 2.3418409e-038
-0.013945313 0.0061359406 -0.030679688 2.3418409e-038
-0.012829687 0.0061359406 -0.030679688 2.3418409e-038
-0.011714064 0.0061359406 -0.030679688 2.3418409e-038
-0.010598438 0.0061359406 -0.030679688 2.3418409e-038
-0.0094828121 0.0061359406 -0.030679688 2.3418409e-038
-0.0083671883 0.0061359406 -0.030679688 2.3418409e-038
-0.0072515626 0.0061359406 -0.030679688 2.3418409e-038
-0.0061359387 0.0061359406 -0.030679688 2.3418409e-038
-0.0050203111 0.0061359406 -0.030679688 2.3418409e-038
-0.0039046872 0.0061359406 -0.030679688 2.3418409e-038
-0.0027890634 0.0061359406 -0.030679688 2.3418409e-038
-0.0016734377 0.0061359406 -0.030679688 2.3418409e-038
-0.00055781379 0.0061359406 -0.030679688 2.3418409e-038
0.00055781379 0.0061359406 -0.030679688 2.3418409e-038
0.0016734377 0.0061359406 -0.030679688 2.3418409e-038
0.0027890615 0.0061359406 -0.030679688 2.3418409e-038
0.0039046854 0.0061359406 -0.030679688 2.3418409e-038
0.005020313 0.0061359406 -0.030679688 2.3418409e-038
0.0061359406 0.0061359406 -0.030679688 2.3418409e-038
0.0072515607 0.0061359406 -0.030679688 2.3418409e-038
0.0083671883 0.0061359406 -0.030679688 2.3418409e-038
0.0094828121 0.0061359406 -0.030679688 2.3418409e-038
0.01059844 0.0061359406 -0.030679688 2.3418409e-038
0.011714064 0.0061359406 -0.030679688 2.3418409e-038
0.012829687 0.0061359406 -0.030679688 2.3418409e-038
0.013945311 0.0061359406 -0.030679688 2.3418409e-038
0.015060939 0.0061359406 -0.030679688 2.3418409e-038
0.016176563 0.0061359406 -0.030679688 2.3418409e-038
0.017292187 0.0061359406 -0.030679688 2.3418409e-038
0.01840781 0.0061359406 -0.030679688 2.3418409e-038
0.019523438 0.0061359406 -0.030679688 2.3418409e-038
0.020639062 0.0061359406 -0.030679688 2.3418409e-038
0.02175469 0.0061359406 -0.030679688 2.3418409e-038
0.022870313 0.0061359406 -0.030679688 2.3418409e-038
0.023985941 0.0061359406 -0.030679688 2.3418409e-038
0.025101561 0.0061359406 -0.030679688 2.3418409e-038
0.026217189 0.0061359406 -0.030679688 2.3418409e-038
0.027332813 0.0061359406 -0.030679688 2.3418409e-038
0.02844844 0.0061359406 -0.030679688 2.3418409e-038
0.02956406 0.0061359406 -0.030679688 2.3418409e-038
0.030679688 0.0061359406 -0.030679688 9.1476764e-041
-0.030679688 0.0061359406 -0.029564062 2.3418052e-038
0.030679688 0.0061359406 -0.029564062 9.1476764e-041
-0.030679688 0.0061359406 -0.028448438 2.3418052e-038
0.030679688 0.0061359406 -0.028448438 9.1476764e-041
-0.030679688 0.0061359406 -0.027332813 2.3418052e-038
0.030679688 0.0061359406 -0.027332813 9.1476764e-041
-0.030679688 0.0061359406 -0.026217189 2.3418052e-038
0.030679688 0.0061359406 -0.026217189 9.1476764e-041
-0.030679688 0.0061359406 -0.025101563 2.3418052e-038
0.030679688 0.0061359406 -0.025101563 9.1476764e-041
-0.030679688 0.0061359406 -0.023985937 2.3418052e-038
0.030679688 0.0061359406 -0.023985937 9.1476764e-041
-0.030679688 0.0061359406 -0.022870313 2.3418052e-038
0.030679688 0.0061359406 -0.022870313 9.1476764e-041
-0.030679688 0.0061359406 -0.021754688 2.3418052e-038
0.030679688 0.0061359406 -0.021754688 9.1476764e-041
-0.030679688 0.0061359406 -0.020639062 2.3418052e-038
0.030679688 0.0061359406 -0.020639062 9.1476764e-041
-0.030679688 0.0061359406 -0.019523438 2.3418052e-038
0.030679688 0.0061359406 -0.019523438 9.1476764e-041
-0.030679688 0.0061359406 -0.018407814 2.3418052e-038
0.030679688 0.0061359406 -0.018407814 9.1476764e-041
-0.030679688 0.0061359406 -0.017292187 2.3418052e-038
0.030679688 0.0061359406 -0.017292187 9.1476764e-041
-0.030679688 0.0061359406 -0.016176563 2.3418052e-038
0.030679688 0.0061359406 -0.016176563 9.1476764e-041
-0.030679688 0.0061359406 -0.015060937 2.3418052e-038
0.030679688 0.0061359406 -0.015060937 9.1476764e-041
-0.030679688 0.0061359406 -0.013945313 2.3418052e-038
0.030679688 0.0061359406 -0.013945313 9.1476764e-041
-0.030679688 0.0061359406 -0.012829687 2.3418052e-038
0.030679688 0.0061359406 -0.012829687 9.1476764e-041
-0.030679688 0.0061359406 -0.011714064 2.3418052e-038
0.030679688 0.0061359406 -0.011714064 9.1476764e-041
-0.030679688 0.0061359406 -0.010598438 2.3418052e-038
0.030679688 0.0061359406 -0.010598438 9.1476764e-041
-0.030679688 0.0061359406 -0.0094828121 2.3418052e-038
0.030679688 0.0061359406 -0.0094828121 9.1476764e-041
-0.030679688 0.0061359406 -0.0083671883 2.3418052e-038
0.030679688 0.0061359406 -0.0083671883 9.1476764e-041
-0.030679688 0.0061359406 -0.0072515626 2.3418052e-038
0.030679688 0.0061359406 -0.0072515626 9.1476764e-041
-0.030679688 0.0061359406 -0.0061359387 2.3418052e-038
0.030679688 0.0061359406 -0.0061359387 9.1476764e-041
-0.030679688 0.0061359406 -0.0050203111 2.3418052e-038
0.030679688 0.0061359406 -0.0050203111 9.1476764e-041
-0.030679688 0.0061359406 -0.0039046872 2.3418052e-038
0.030679688 0.0061359406 -0.0039046872 9.1476764e-041
-0.030679688 0.0061359406 -0.0027890634 2.3418052e-038
0.030679688 0.0061359406 -0.0027890634 9.1476764e-041
-0.030679688 0.0061359406 -0.0016734377 2.3418052e-038
0.030679688 0.0061359406 -0.0016734377 9.1476764e-041
-0.030679688 0.0061359406 -0.00055781379 2.3418052e-038
0.030679688 0.0061359406 -0.00055781379 9.1476764e-041
-0.030679688 0.0061359406 0.00055781379 2.3418052e-038
0.030679688 0.0061359406 0.00055781379 9.1476764e-041
-0.030679688 0.0061359406 0.0016734377 2.3418052e-038
0.030679688 0.0061359406 0.0016734377 9.1476764e-041
-0.030679688 0.0061359406 0.0027890615 2.3418052e-038
0.030679688 0.0061359406 0.0027890615 9.1476764e-041
-0.030679688 0.0061359406 0.0039046854 2.3418052e-038
0.030679688 0.0061359406 0.0039046854 9.1476764e-041
-0.030679688 0.0061359406 0.005020313 2.3418052e-038
0.030679688 0.0061359406 0.005020313 9.1476764e-041
-0.030679688 0.0061359406 0.0061359406 2.3418052e-038
0.030679688 0.0061359406 0.0061359406 9.1476764e-041
-0.030679688 0.0061359406 0.0072515607 2.3418052e-038
0.030679688 0.0061359406 0.0072515607 9.1476764e-041
-0.030679688 0.0061359406 0.0083671883 2.3418052e-038
0.030679688 0.0061359406 0.0083671883 9.1476764e-041
-0.030679688 0.0061359406 0.0094828121 2.3418052e-038
0.030679688 0.0061359406 0.0094828121 9.1476764e-041
-0.030679688 0.0061359406 0.01059844 2.3418052e-038
0.030679688 0.0061359406 0.01059844 9.1476764e-041
-0.030679688 0.0061359406 0.011714064 2.3418052e-038
0.030679688 0.0061359406 0.011714064 9.1476764e-041
-0.030679688 0.0061359406 0.012829687 2.3418052e-038
0.030679688 0.0061359406 0.012829687 9.1476764e-041
-0.030679688 0.0061359406 0.013945311 2.3418052e-038
0.030679688 0.0061359406 0.013945311 9.1476764e-041
-0.030679688 0.0061359406 0.015060939 2.3418052e-038
0.030679688 0.0061359406 0.015060939 9.1476764e-041
-0.030679688 0.0061359406 0.016176563 2.3418052e-038
0.030679688 0.0061359406 0.016176563 9.1476764e-041
-0.030679688 0.0061359406 0.017292187 2.3418052e-038
0.030679688 0.0061359406 0.017292187 9.1476764e-041
-0.030679688 0.0061359406 0.01840781 2.3418052e-038
0.030679688 0.0061359406 0.01840781 9.1476764e-041
-0.030679688 0.0061359406 0.019523438 2.3418052e-038
0.030679688 0.0061359406 0.019523438 9.1476764e-041
-0.030679688 0.0061359406 0.020639062 2.3418052e-038
0.030679688 0.0061359406 0.020639062 9.1476764e-041
-0.030679688 0.0061359406 0.02175469 2.3418052e-038
0.030679688 0.0061359406 0.02175469 9.1476764e-041
-0.030679688 0.0061359406 0.022870313 2.3418052e-038
0.030679688 0.0061359406 0.022870313 9.1476764e-041
-0.030679688 0.0061359406 0.023985941 2.3418052e-038
0.030679688 0.0061359406 0.023985941 9.1476764e-041
-0.030679688 0.0061359406 0.025101561 2.3418052e-038
0.030679688 0.0061359406 0.025101561 9.1476764e-041
-0.030679688 0.0061359406 0.026217189 2.3418052e-038
0.030679688 0.0061359406 0.026217189 9.1476764e-041
-0.030679688 0.0061359406 0.027332813 2.3418052e-038
0.030679688 0.0061359406 0.027332813 9.1476764e-041
-0.030679688 0.0061359406 0.02844844 2.3418052e-038
0.030679688 0.0061359406 0.02844844 9.1476764e-041
-0.030679688 0.0061359406 0.02956406 2.3418052e-038
0.030679688 0.0061359406 0.02956406 9.1476764e-041
-0.030679688 0.0061359406 0.030679688 2.3418052e-038
-0.029564062 0.0061359406 0.030679688 2.3509528e-038
-0.028448438 0.0061359406 0.030679688 2.3509528e-038
-0.027332813 0.0061359406 0.030679688 2.3509528e-038
-0.026217189 0.0061359406 0.030679688 2.3509528e-038
-0.025101563 0.0061359406 0.030679688 2.3509528e-038
-0.023985937 0.0061359406 0.030679688 2.3509528e-038
-0.022870313 0.0061359406 0.030679688 2.3509528e-038
-0.021754688 0.0061359406 0.030679688 2.3509528e-038
-0.020639062 0.0061359406 0.030679688 2.3509528e-038
-0.019523438 0.0061359406 0.030679688 2.3509528e-038
-0.018407814 0.0061359406 0.030679688 2.3509528e-038
-0.017292187 0.0061359406 0.030679688 2.3509528e-038
-0.016176563 0.0061359406 0.030679688 2.3509528e-038
-0.015060937 0.0061359406 0.030679688 2.3509528e-038
-0.013945313 0.0061359406 0.030679688 2.3509528e-038
-0.012829687 0.0061359406 0.030679688 2.3509528e-038
-0.011714064 0.0061359406 0.030679688 2.3509528e-038
-0.010598438 0.0061359406 0.030679688 2.3509528e-038
-0.0094828121 0.0061359406 0.030679688 2.3509528e-038
-0.0083671883 0.0061359406 0.030679688 2.3509528e-038
-0.0072515626 0.0061359406 0.030679688 2.3509528e-038
-0.0061359387 0.0061359406 0.030679688 2.3509528e-038
-0.0050203111 0.0061359406 0.030679688 2.3509528e-038
-0.0039046872 0.0061359406 0.030679688 2.3509528e-038
-0.0027890634 0.0061359406 0.030679688 2.3509528e-038
-0.0016734377 0.0061359406 0.030679688 2.3509528e-038
-0.00055781379 0.0061359406 0.030679688 2.3509528e-038
0.00055781379 0.0061359406 0.030679688 2.3509528e-038
0.0016734377 0.0061359406 0.030679688 2.3509528e-038
0.0027890615 0.0061359406 0.030679688 2.3509528e-038
0.0039046854 0.0061359406 0.030679688 2.3509528e-038
0.005020313 0.0061359406 0.030679688 2.3509528e-038
0.0061359406 0.0061359406 0.030679688 2.3509528e-038
0.0072515607 0.0061359406 0.030679688 2.3509528e-038
0.0083671883 0.0061359406 0.030679688 2.3509528e-038
0.0094828121 0.0061359406 0.030679688 2.3509528e-038
0.01059844 0.0061359406 0.030679688 2.3509528e-038
0.011714064 0.0061359406 0.030679688 2.3509528e-038
0.012829687 0.0061359406 0.030679688 2.3509528e-038
0.013945311 0.0061359406 0.030679688 2.3509528e-038
0.015060939 0.0061359406 0.030679688 2.3509528e-038
0.016176563 0.0061359406 0.030679688 2.3509528e-038
0.017292187 0.0061359406 0.030679688 2.3509528e-038
0.01840781 0.0061359406 0.030679688 2.3509528e-038
0.019523438 0.0061359406 0.030679688 2.3509528e-038
0.020639062 0.0061359406 0.030679688 2.3509528e-038
0.02175469 0.0061359406 0.030679688 2.3509528e-038
0.022870313 0.0061359406 0.030679688 2.3509528e-038
0.023985941 0.0061359406 0.030679688 2.3509528e-038
0.025101561 0.0061359406 0.030679688 2.3509528e-038
0.026217189 0.0061359406 0.030679688 2.3509528e-038
0.027332813 0.0061359406 0.030679688 2.3509528e-038
0.02844844 0.0061359406 0.030679688 2.3509528e-038
0.02956406 0.0061359406 0.030679688 2.3509528e-038
0.030679688 0.0061359406 0.030679688 9.1476764e-041
-0.030679688 0.0072515607 -0.030679688 2.3418052e-038
-0.029564062 0.0072515607 -0.030679688 2.3418409e-038
-0.028448438 0.0072515607 -0.030679688 2.3418409e-038
-0.027332813 0.0072515607 -0.030679688 2.3418409e-038
-0.026217189 0.0072515607 -0.030679688 2.3418409e-038
-0.025101563 0.0072515607 -0.030679688 2.3418409e-038
-0.023985937 0.0072515607 -0.030679688 2.3418409e-038
-0.022870313 0.0072515607 -0.030679688 2.3418409e-038
-0.021754688 0.0072515607 -0.030679688 2.3418409e-038
-0.020639062 0.0072515607 -0.030679688 2.3418409e-038
-0.019523438 0.0072515607 -0.030679688 2.3418409e-038
-0.018407814 0.0072515607 -0.030679688 2.3418409e-038
-0.017292187 0.0072515607 -0.030679688 2.3418409e-038
-0.016176563 0.0072515607 -0.030679688 2.3418409e-038
-0.015060937 0.0072515607 -0.030679688 2.3418409e-038
-0.013945313 0.0072515607 -0.030679688 2.3418409e-038
-0.012829687 0.0072515607 -0.030679688 2.3418409e-038
