# .PCD v0.7 - Point Cloud Data file format
VERSION 0.7
FIELDS x y z
SIZE 4 4 4
TYPE F F F
COUNT 1 1 1
WIDTH 85
HEIGHT 1
VIEWPOINT 0 0 0 1 0 0 0
POINTS 85
DATA ascii
9.1472553e-005 -0.021338418 0.030351937
0.0045105238 -0.028604655 0.016847502
-0.0045770803 -0.02860461 0.016846661
0.0021242797 -0.022241643 0.022108046
-0.0048601879 -0.021756336 0.022708289
0.0014515576 -0.012768853 0.02066814
-0.0049316841 -0.011761098 0.018342
0.011700326 -0.041544054 0.0044243564
0.010364953 -0.041533232 0.0052376916
-0.011391921 -0.041539941 0.0047984272
0.013239587 -0.036665719 0.0073457048
0.0064371354 -0.036905002 0.0081643304
-0.009594772 -0.037872225 0.0076066097
-0.016516317 -0.032962885 0.006900189
0.016428657 -0.022391632 0.0097081466
0.010170633 -0.027937345 0.015540611
-0.012485773 -0.02387066 0.01467267
-0.017214714 -0.022530118 0.0085714515
0.014739629 -0.0088296672 0.0089970119
0.006192178 -0.0065326588 0.015689392
-0.010548659 -0.0073671611 0.013386295
-0.016395526 -0.010510191 0.0065536913
0.013589829 0.004492593 0.0072220839
0.0034876617 0.0042187348 0.014773048
-0.0088317059 0.004539384 0.011964488
-0.015130792 0.0038426579 0.0045138011
0.012174148 0.015946068 0.0071116411
0.003980733 0.017400093 0.011526529
-0.0083824191 0.01698285 0.0095832814
0.0032183537 0.025783429 0.0062615592
-0.0057207993 0.025381679 0.0061011575
0.012562699 -0.041535042 -0.0018590671
0.010508655 -0.041535135 0.0018375837
-0.011405654 -0.041540548 0.0024354442
0.013922881 -0.038813964 -0.0031609042
0.0060654539 -0.03662632 -0.0015933217
-0.0111486 -0.039221704 -0.0026024715
-0.016974613 -0.034262583 -0.0014321778
0.016574457 -0.021990128 -0.0041348096
-0.013632984 -0.021775747 -0.0080061331
-0.017638393 -0.02206151 -0.0028484815
0.016053503 -0.0085965162 -0.0057346392
-0.014345069 -0.010987987 -0.0083437618
-0.016832858 -0.0075488943 -0.005044329
0.016021887 0.0046861144 -0.0039758589
-0.014203618 0.0028423816 -0.0089802667
-0.016492523 0.0038577633 -0.0043059471
0.015126743 0.017510297 -0.0028370339
-0.014136552 0.021053165 -0.0017741685
-0.015737118 0.015667977 -0.0033939893
0.024309548 0.035643648 -0.0034811364
0.015361032 0.028956929 -0.0034185795
0.0063126986 0.028120518 -0.0032707921
-0.010275501 0.027428687 -0.0034411692
-0.018770445 0.031534594 -0.0033876211
0.026518738 0.04260831 -0.0016240374
0.021054588 0.039625727 -0.0026027185
-0.024450907 0.041333303 -0.0020199348
-0.027964713 0.044630371 -0.0012712441
0.0041318177 -0.029434821 -0.010090711
-0.0041933707 -0.029434782 -0.010091486
0.011836352 -0.023888716 -0.0092377765
0.0036438892 -0.021698384 -0.012046658
-0.0065645482 -0.020464756 -0.011796972
0.015123892 -0.010099961 -0.016732872
0.0068247425 -0.007592109 -0.014028545
-0.0084412806 -0.007917095 -0.012952045
-0.022231482 -0.0048086378 -0.017563984
0.013962347 0.0040538642 -0.012599676
0.0056019635 0.0022354559 -0.016243668
-0.0087406291 0.002953233 -0.015290326
-0.021536563 0.00053830148 -0.018615311
0.013403866 0.015686324 -0.012633868
0.0056355405 0.016446024 -0.018516164
-0.0087857209 0.016371584 -0.016495483
-0.015492007 0.013010096 -0.010696396
0.011895947 0.023471802 -0.010049754
0.0046570608 0.026146725 -0.012985023
-0.0060858945 0.025852576 -0.012659696
0.014619001 -0.01116761 -0.023627834
0.001230911 0.0095869079 -0.022493072
-0.0025506062 0.0095150787 -0.02228725
-0.022787005 0.0003349185 -0.022216864
0.00076458888 0.012275179 -0.022596588
-0.0024120945 0.011513092 -0.022444153
