# .PCD v0.7 - Point Cloud Data file format
VERSION 0.7
FIELDS x y z
SIZE 4 4 4
TYPE F F F
COUNT 1 1 1
WIDTH 85
HEIGHT 1
VIEWPOINT 0 0 0 1 0 0 0
POINTS 85
DATA ascii
8.3849838e-005 -0.019560216 0.027822608
0.0041346466 -0.026220933 0.015443544
-0.0041956571 -0.026220892 0.015442772
0.0019472564 -0.020388171 0.020265708
-0.0044551725 -0.019943308 0.020815931
0.0013305945 -0.011704782 0.018945795
-0.0045207101 -0.010781006 0.016813498
0.010725299 -0.038082048 0.0040556598
0.0095012076 -0.038072128 0.0048012175
-0.010442594 -0.038078278 0.0043985583
0.012136287 -0.03361024 0.0067335623
0.0059007071 -0.033829585 0.0074839694
-0.0087952074 -0.034716208 0.0069727255
-0.015139957 -0.030215977 0.0063251732
0.015059602 -0.020525662 0.0088991337
0.0093230801 -0.025609232 0.01424556
-0.011445291 -0.021881437 0.013449947
-0.015780153 -0.020652609 0.0078571644
0.013511326 -0.0080938609 0.0082472609
0.0056761634 -0.0059882705 0.014381942
-0.0096696038 -0.0067532309 0.012270771
-0.015029231 -0.009634342 0.0060075503
0.012457344 0.0041182102 0.0066202437
0.0031970232 0.0038671736 0.01354196
-0.0080957301 0.0041611022 0.010967446
-0.013869893 0.0035224364 0.0041376511
0.011159636 0.014617229 0.0065190042
0.003649005 0.015950086 0.010565985
-0.0076838839 0.015567612 0.008784675
0.0029501575 0.023634808 0.0057397624
-0.005244066 0.023266537 0.0055927276
0.011515806 -0.038073786 -0.0017041448
0.0096329339 -0.038073871 0.0016844517
-0.010455183 -0.038078837 0.0022324906
0.012762642 -0.035579465 -0.0028974954
0.005559999 -0.033574127 -0.0014605448
-0.01021955 -0.035953227 -0.0023855988
-0.015560062 -0.031407367 -0.0013128297
0.015193253 -0.020157617 -0.0037902421
-0.012496902 -0.019961102 -0.0073389551
-0.016168525 -0.020223049 -0.0026111079
0.014715711 -0.0078801392 -0.0052567525
-0.013149646 -0.010072322 -0.007648448
-0.01543012 -0.0069198199 -0.0046239682
0.014686729 0.0042956048 -0.0036445372
-0.013019984 0.0026055165 -0.0082319109
-0.015118145 0.003536283 -0.0039471178
0.013866181 0.016051106 -0.0026006144
-0.012958506 0.019298734 -0.0016263211
-0.014425691 0.014362312 -0.0031111566
0.022283752 0.032673344 -0.0031910415
0.014080946 0.02654385 -0.0031336977
0.0057866406 0.025777141 -0.0029982259
-0.0094192084 0.025142962 -0.0031544052
-0.017206242 0.02890671 -0.0031053193
0.024308842 0.039057616 -0.0014887009
0.01930004 0.036323585 -0.0023858252
-0.02241333 0.037888862 -0.0018516069
-0.025634319 0.040911175 -0.0011653071
0.0037874994 -0.026981918 -0.0092498185
-0.0038439231 -0.026981883 -0.0092505291
0.010849989 -0.021897988 -0.0084679611
0.0033402317 -0.019890184 -0.01104277
-0.0060175024 -0.018759359 -0.01081389
0.013863567 -0.0092582973 -0.015338465
0.0062560136 -0.0069594332 -0.012859499
-0.0077378405 -0.0072573368 -0.011872708
-0.020378858 -0.0044079176 -0.016100317
0.012798818 0.003716042 -0.011549703
0.0051351334 0.0020491679 -0.014890028
-0.0080122426 0.00270713 -0.014016131
-0.01974185 0.00049344305 -0.017064035
0.012286876 0.01437913 -0.011581046
0.0051659117 0.015075522 -0.016973151
-0.0080535775 0.015007284 -0.015120858
-0.014201007 0.011925921 -0.0098050302
0.010904619 0.021515818 -0.0092122741
0.0042689722 0.02396783 -0.011902937
-0.0055787363 0.023698194 -0.011604722
0.01340075 -0.010236976 -0.021658849
0.0011283351 0.0087879989 -0.020618649
-0.0023380558 0.0087221554 -0.020429978
-0.020888088 0.00030700862 -0.020365458
0.00070087309 0.011252248 -0.020713538
-0.0022110865 0.010553667 -0.020573808
