# .PCD v0.7 - Point Cloud Data file format
VERSION 0.7
FIELDS x y z
SIZE 4 4 4
TYPE F F F
COUNT 1 1 1
WIDTH 726
HEIGHT 1
VIEWPOINT 0 0 0 1 0 0 0
POINTS 726
DATA ascii
0.0058207791 -0.10106165 1.343191
0.010847213 -0.09679579 1.3419137
0.0053669382 -0.09593419 1.3441625
-0.00017547049 -0.098042361 1.3433471
0.010009741 -0.091520347 1.3398943
0.0041199755 -0.091322929 1.3425599
-0.0017807614 -0.092705436 1.3407925
0.0036693905 -0.087976046 1.3380246
0.0087261256 -0.10403636 1.3396616
0.0028453097 -0.1047016 1.3404255
0.012934417 -0.10038473 1.3375239
-0.0024619605 -0.10212586 1.3395253
0.01386256 -0.095141053 1.3348309
-0.0051684361 -0.097293258 1.3373036
0.0085025765 -0.089020573 1.3321598
-3.2031909e-005 -0.088397831 1.332474
-0.0042402763 -0.092049643 1.3346106
0.0083160736 -0.1058899 1.3354779
0.0042338446 -0.10635275 1.3339474
0.011703419 -0.10264267 1.3320571
0.0042406898 -0.10337391 1.3305236
-0.0021859799 -0.1042135 1.3338625
0.013323747 -0.097217709 1.3307687
0.0098647978 -0.096327417 1.3274398
0.0031062253 -0.095776759 1.3284048
-0.0031325798 -0.097797334 1.329129
-0.0052299667 -0.099315859 1.3331802
0.0078942906 -0.090948604 1.3267238
0.0018673465 -0.091438234 1.3262889
-0.0038455818 -0.092887603 1.3279034
0.020134347 -0.11001503 1.3253473
0.015097203 -0.11246393 1.3277296
0.010175897 -0.11059477 1.3290387
0.0049486291 -0.1102709 1.3299698
-0.00014115684 -0.1117615 1.3303796
-0.004698528 -0.11470254 1.3303028
-0.010584669 -0.11348903 1.329339
0.017237991 -0.10619196 1.3264853
0.010206295 -0.10347755 1.3285227
0.0041964669 -0.10392637 1.3281995
-0.00031797029 -0.10421684 1.3300291
-0.0064910818 -0.10757137 1.3299922
0.019660268 -0.098779619 1.3220657
0.013703203 -0.096658081 1.3251187
0.0079757757 -0.099170499 1.3260672
0.0028776247 -0.099805936 1.325618
-0.001730701 -0.099546455 1.3274914
-0.0075157341 -0.099057689 1.327877
-0.013434095 -0.10252228 1.3263667
0.018130668 -0.091434419 1.3178245
0.012787508 -0.090719506 1.3213432
0.002856195 -0.09556593 1.3251629
-0.0089102853 -0.093173213 1.3241628
-0.01467661 -0.095144868 1.322087
0.016217858 -0.086690344 1.313887
0.011309884 -0.086144619 1.3172435
0.0062035378 -0.085900009 1.3196149
0.0010480676 -0.086085446 1.3210005
-0.0042007323 -0.087076806 1.3209667
-0.0095575955 -0.088504598 1.3199559
-0.014909836 -0.090210624 1.3179324
0.0097869206 -0.082396954 1.3133013
0.0050005 -0.082251303 1.3154856
8.3906576e-005 -0.08242581 1.3167663
-0.0049108136 -0.083372094 1.3167745
-0.0099407081 -0.084628023 1.315865
0.0037536826 -0.077916011 1.3117646
-0.00088828243 -0.078249261 1.3129188
-0.0056277085 -0.078976922 1.3129832
0.002507586 -0.072728217 1.3082236
-0.0019522849 -0.072921202 1.3093693
-0.0064867493 -0.07374543 1.3093926
-0.0028983597 -0.068014637 1.3063595
0.014912019 -0.12085478 1.3257349
-0.0031843018 -0.1229014 1.3280871
0.022791214 -0.11726201 1.323904
0.018492419 -0.11697575 1.3257527
0.011643695 -0.1184257 1.326998
0.0055213775 -0.11723349 1.3283179
-0.00031938218 -0.11977874 1.328552
-0.007405838 -0.11990482 1.3291187
-0.011860283 -0.12118072 1.3284084
0.024997216 -0.11243413 1.3217882
-0.015533993 -0.11701803 1.3270553
0.026143845 -0.10460932 1.3173121
0.023087015 -0.10563248 1.3220501
-0.015161788 -0.10995813 1.3270211
-0.019463064 -0.10976698 1.3232398
0.024158886 -0.098479412 1.3157147
-0.019342238 -0.10339909 1.3213683
0.022404065 -0.09268669 1.3126462
-0.019735524 -0.097452335 1.318123
0.020311764 -0.087780692 1.3092232
-0.019705484 -0.092306443 1.3144243
0.016361842 -0.083168037 1.3081342
-0.01727161 -0.086971655 1.312505
0.010419512 -0.078198262 1.3083383
-0.012711881 -0.080814108 1.3113452
0.0089471545 -0.073108248 1.3050889
-0.013262687 -0.075620115 1.3079749
0.0098924246 -0.068460248 1.3008956
0.003628375 -0.067916572 1.3042121
-0.0073849391 -0.068823032 1.3062838
-0.014036441 -0.070709899 1.3049369
0.0069478974 -0.063432686 1.2989154
0.00053122081 -0.062834442 1.3018092
-0.0038637985 -0.063157633 1.3031571
-0.0084165279 -0.063846365 1.3029722
-0.015062274 -0.065921769 1.3017764
0.0062672067 -0.059617881 1.296019
-0.00022336841 -0.058982395 1.2988237
-0.0046875719 -0.059333168 1.3001468
-0.0093053635 -0.060009535 1.3000032
-0.015989969 -0.062134773 1.2989128
0.0034843404 -0.055768415 1.2942573
-0.00094979815 -0.055500079 1.2959453
-0.0054439511 -0.055889808 1.297322
-0.010112172 -0.056536265 1.2971365
-0.014657954 -0.057820272 1.2966146
0.0027661007 -0.052560013 1.2913529
-0.0019293595 -0.051176287 1.2918795
-0.0066718441 -0.050796524 1.2923058
-0.011165174 -0.052220795 1.2930795
-0.015418878 -0.054616731 1.2937157
0.022427389 -0.12867869 1.32139
-0.0096441638 -0.13230588 1.3255589
0.027089933 -0.12492964 1.3193979
0.023236958 -0.12470989 1.3219656
0.01807153 -0.12622036 1.322744
0.01193637 -0.12477791 1.3227792
-0.00026457198 -0.12615773 1.3243639
-0.0057377722 -0.12891302 1.3258383
-0.01113374 -0.12859693 1.3264326
-0.015364526 -0.1297309 1.3249152
0.028932577 -0.11801012 1.3178452
0.02574102 -0.11756981 1.321569
0.0056000371 -0.12290474 1.3239868
-0.01804998 -0.12312312 1.3247795
0.028780924 -0.11095767 1.3160436
-0.019089891 -0.11629635 1.3244239
-0.022658365 -0.1168502 1.3205683
0.028675372 -0.10478636 1.3115339
-0.023268266 -0.11066076 1.3182853
0.027044998 -0.099460602 1.3093575
-0.023450831 -0.10517118 1.3159211
0.025183162 -0.09410166 1.3064985
-0.023595462 -0.099618152 1.312838
0.023095174 -0.089239955 1.3035233
-0.023446815 -0.094503514 1.3095719
0.020229587 -0.082628287 1.2994883
0.016440675 -0.079114348 1.3031555
-0.019492855 -0.08317811 1.3078263
-0.023217341 -0.087541923 1.3051345
0.017735453 -0.075389832 1.295926
0.014866628 -0.074046895 1.3004131
-0.019814951 -0.077969082 1.3049215
-0.023356104 -0.080036998 1.3012661
0.01518986 -0.070313074 1.2956227
-0.022148987 -0.074535817 1.3004756
0.014202677 -0.065979622 1.2926846
-0.022912355 -0.070177168 1.2975085
0.011904581 -0.061521128 1.2917446
-0.021963188 -0.065351449 1.2961454
0.010791393 -0.05676534 1.2876762
0.007275084 -0.055121716 1.2906481
-0.019283066 -0.058125231 1.2940997
-0.022985565 -0.060585253 1.2920669
0.0098343734 -0.052643728 1.2841824
0.0041565541 -0.050554283 1.2878027
-0.0024406184 -0.049289353 1.2897384
-0.011638356 -0.050329644 1.2909334
-0.018065823 -0.053067252 1.2906915
-0.023871301 -0.056455739 1.288563
0.0031272061 -0.047623876 1.2841221
-0.0024443474 -0.045736074 1.2833385
-0.0077560078 -0.047047284 1.2872256
-0.014030693 -0.047046341 1.2848454
-0.018668802 -0.050089024 1.2869546
-0.0084945951 -0.045240067 1.2831153
0.023476863 -0.13559437 1.319675
-0.010143252 -0.13945888 1.3239239
0.024020813 -0.13299274 1.3205668
0.019913103 -0.13265955 1.3202201
-0.0066297557 -0.13571621 1.3236417
-0.010155315 -0.13695875 1.3249509
0.028682215 -0.12719208 1.3162725
0.025769858 -0.1281743 1.3196336
0.016137002 -0.1295388 1.3201212
0.011482706 -0.12852356 1.3186523
0.0054836478 -0.12753825 1.3190601
-5.6078658e-005 -0.12982853 1.3201511
-0.0038480889 -0.13179913 1.3227179
-0.013348283 -0.13259834 1.3247173
-0.017156756 -0.13237631 1.3222306
0.032204583 -0.12204643 1.3129572
0.03016487 -0.12117712 1.316465
-0.019827148 -0.12683094 1.3229605
-0.022443445 -0.12822695 1.3200589
0.03255327 -0.11736134 1.3108975
-0.024321223 -0.12379342 1.3182893
0.031619996 -0.11195017 1.308395
-0.025261873 -0.1183833 1.3157878
0.029924834 -0.10614774 1.305634
-0.025635788 -0.1124312 1.312856
0.028219847 -0.10112412 1.3029659
-0.025806321 -0.10723393 1.3099871
0.026331749 -0.096003786 1.3000286
-0.025893161 -0.10191017 1.3068159
0.024431342 -0.091225363 1.2971926
-0.02586765 -0.096913904 1.3037298
0.022649266 -0.086766697 1.2946136
-0.025818923 -0.092248097 1.3009133
0.020261986 -0.079688378 1.2915698
-0.02589226 -0.084908053 1.2975681
0.018456982 -0.073256217 1.2885818
-0.026358427 -0.078324586 1.2944059
0.017783776 -0.069436565 1.2862171
-0.027160028 -0.074519366 1.2920588
0.01721671 -0.065997928 1.2837906
0.01450989 -0.061998986 1.2867736
-0.025568334 -0.066531673 1.2919821
-0.02799339 -0.071111038 1.2896657
0.0134058 -0.05734241 1.2830763
-0.026484111 -0.061853867 1.2882602
0.012456764 -0.053704709 1.2801272
-0.027132908 -0.058182023 1.285273
0.0082287062 -0.048543211 1.2795419
0.0041232184 -0.04616423 1.2798655
-0.021002231 -0.049005721 1.2831312
-0.024430184 -0.052236713 1.2837869
0.0061153416 -0.046343885 1.2746321
0.0027910471 -0.044899788 1.2762711
-0.003959721 -0.043892998 1.2767923
-0.009423947 -0.043936413 1.277099
-0.01466004 -0.045103226 1.2781833
-0.020931909 -0.047582716 1.279354
-0.024161121 -0.049767938 1.2785673
0.023684062 -0.13749777 1.3157009
-0.010400178 -0.14107451 1.3207074
0.027403114 -0.1362254 1.3131853
0.024550786 -0.13483274 1.31332
0.019239524 -0.1349847 1.314739
-0.0069340412 -0.13794467 1.3181405
-0.011776736 -0.13958296 1.3179085
-0.014577443 -0.14080027 1.3192014
0.031747043 -0.12709555 1.3110024
0.029682541 -0.13052559 1.3104533
0.015529493 -0.13337371 1.3129315
0.012081437 -0.13139604 1.3137772
0.0051253121 -0.1303689 1.3138396
-0.0012198165 -0.13290033 1.3155055
-0.0042479169 -0.13561016 1.3155031
-0.01883615 -0.13601272 1.3167595
-0.021396345 -0.13310568 1.3179102
0.032836191 -0.1245179 1.3071254
-0.023967581 -0.13094217 1.3145078
0.033342041 -0.11918048 1.305982
-0.025905522 -0.12588099 1.313682
0.032099612 -0.11403553 1.30294
-0.026632925 -0.12067775 1.3105735
0.029806552 -0.10834405 1.299753
-0.026526602 -0.11471486 1.3070749
0.027924428 -0.1033925 1.2970817
-0.026514592 -0.10954903 1.3041584
0.02605015 -0.098329045 1.2941735
-0.02659498 -0.10428275 1.3010161
0.024356427 -0.093297184 1.2913407
-0.026819108 -0.099084556 1.2979927
0.022922743 -0.088492073 1.2888457
-0.027153382 -0.094155319 1.2953541
0.02094713 -0.08165969 1.286166
-0.027442576 -0.087127134 1.2925127
0.019542778 -0.07573846 1.2836075
-0.028091999 -0.081125706 1.2897983
0.0191449 -0.07232824 1.2815874
-0.028975809 -0.077770367 1.2878424
0.01773647 -0.065664306 1.2794312
-0.029656844 -0.071024172 1.2855903
0.016109727 -0.059749454 1.2760639
-0.030273316 -0.064995073 1.2820921
0.014376504 -0.05535686 1.2760643
-0.029604794 -0.060330812 1.2817807
0.012630295 -0.052123852 1.2727033
0.010299468 -0.04959536 1.2728298
-0.027844666 -0.053909127 1.2777873
-0.029517801 -0.056890581 1.2781805
0.0073891096 -0.04763877 1.2693077
0.0021452885 -0.045128044 1.2702262
-0.0021380764 -0.043836758 1.2735786
-0.017200233 -0.045540202 1.2755364
-0.021799067 -0.047836062 1.2733389
-0.026420822 -0.051462431 1.2737024
0.018096538 -0.038222838 1.2628914
0.013226155 -0.039999764 1.2645345
-0.0049115103 -0.043866459 1.2700263
-0.010244006 -0.043890957 1.270828
-0.015476847 -0.045061141 1.2713996
-0.034804545 -0.045431815 1.2707767
-0.040199287 -0.044815652 1.2704684
0.022280993 -0.031313956 1.2597224
0.01789831 -0.034735464 1.2619677
0.013022002 -0.035285316 1.261803
-0.03633707 -0.040867388 1.2682185
-0.041011788 -0.041398067 1.2696232
-0.046459816 -0.039088 1.2686573
0.025381135 -0.02564811 1.2564943
0.02199975 -0.028345808 1.2587686
0.016597621 -0.030337378 1.2595111
-0.041372143 -0.036893502 1.2670443
-0.047087632 -0.036159206 1.2677485
-0.051440693 -0.034336049 1.266479
0.02577018 -0.023055829 1.254876
0.022421431 -0.024096571 1.2559955
-0.049118526 -0.032187343 1.2652929
-0.052785106 -0.031939983 1.2650862
0.027357871 -0.14010096 1.3090125
0.024635687 -0.14018621 1.3098235
0.02777783 -0.13835925 1.3092085
0.023072686 -0.13793534 1.3085738
0.018774102 -0.13528737 1.3094496
-0.0077640954 -0.13828853 1.3128986
-0.011630872 -0.14274879 1.313531
-0.015418606 -0.14351414 1.3149594
0.028136054 -0.13273241 1.3056364
0.015950119 -0.13467196 1.307427
0.010747094 -0.13241026 1.3074285
0.0045813154 -0.13211018 1.3081377
-0.0013421047 -0.13377747 1.309
-0.005748542 -0.13712607 1.3102472
-0.01810977 -0.13796243 1.3116481
0.031446546 -0.12742779 1.3027025
-0.023135306 -0.13360058 1.3097978
0.032146096 -0.12239645 1.3006785
-0.025410717 -0.12890577 1.3081595
0.031499013 -0.11626843 1.2988195
-0.026616225 -0.12284075 1.3063731
0.029000564 -0.11081426 1.2953279
-0.026341079 -0.11707298 1.3025209
0.026630204 -0.10585437 1.2928619
-0.025819292 -0.11178595 1.2996796
0.024671018 -0.10106712 1.2898238
-0.025791729 -0.10677417 1.2963829
0.023247123 -0.095452257 1.2855119
-0.026771629 -0.10110915 1.2920127
0.022470348 -0.089933932 1.2844203
-0.027388969 -0.095620997 1.2910786
0.021626266 -0.08534269 1.2824172
-0.028246189 -0.090982966 1.2888994
0.019554799 -0.080310985 1.279282
-0.028185977 -0.085684732 1.2855368
0.019128485 -0.075608931 1.2771393
-0.029362867 -0.081093013 1.2834417
0.018491467 -0.069539979 1.2738498
-0.030926043 -0.075128756 1.2802726
0.016725156 -0.062879637 1.2705241
-0.031563558 -0.068340771 1.2768004
0.014885163 -0.057383146 1.2688382
-0.031462982 -0.062624842 1.2748619
0.012198014 -0.053022958 1.2657526
0.010587888 -0.0508583 1.266825
-0.029354872 -0.055375453 1.2720165
-0.030667396 -0.05787082 1.2713231
0.01373091 -0.047869679 1.264285
0.0076012257 -0.047537256 1.266592
0.0030408539 -0.047689717 1.2637178
-0.023723161 -0.050716549 1.2671967
-0.027328642 -0.051487494 1.2711326
-0.03361427 -0.053224083 1.2704381
0.019141464 -0.04242843 1.260637
0.012545671 -0.041204792 1.2643831
0.0065422859 -0.043594785 1.2623973
-0.0013510156 -0.046176046 1.2641612
-0.005870847 -0.045595419 1.2645836
-0.010784851 -0.045666408 1.2651199
-0.015566876 -0.046691906 1.2658432
-0.019804934 -0.048263043 1.2665602
-0.028255718 -0.047530137 1.2669195
-0.032469004 -0.04587613 1.2700603
-0.040037572 -0.048895206 1.268975
0.023358211 -0.035279021 1.2577628
0.010846613 -0.035258263 1.2578791
0.0085624065 -0.038820602 1.2594258
-0.031958036 -0.043403298 1.2646919
-0.035283752 -0.040475342 1.2638742
-0.047098838 -0.043247201 1.2669206
0.026382385 -0.028928228 1.2536019
0.025466491 -0.029682584 1.2568225
0.015872041 -0.028738886 1.2552911
0.013341662 -0.031887736 1.2564938
-0.038725026 -0.037776221 1.2632605
-0.042104535 -0.035295602 1.2628273
-0.052086949 -0.037911206 1.264317
0.026740847 -0.023105778 1.2515553
0.021370016 -0.023805626 1.2518647
0.018313365 -0.026006542 1.254194
-0.045282088 -0.033198815 1.2624605
-0.049234085 -0.03179042 1.2610414
-0.054527521 -0.032296799 1.2621166
0.026978897 -0.020227741 1.250927
-0.055542342 -0.029560328 1.2616521
0.027202802 -0.14164409 1.3059053
0.024704905 -0.14218701 1.3056953
0.027500926 -0.14142485 1.3045229
0.024499075 -0.14203484 1.304291
-0.012958793 -0.14628911 1.3093077
-0.015807731 -0.14634332 1.3103017
0.022399338 -0.13459614 1.3020329
0.017275341 -0.13470915 1.3010625
0.012888277 -0.13367322 1.3022343
-0.0043934118 -0.13562745 1.3044806
-0.008595759 -0.13763504 1.3044248
-0.013204204 -0.13862279 1.3066597
0.028120184 -0.12864305 1.2981902
0.022124041 -0.13095735 1.2958586
0.008359395 -0.13238493 1.2994977
0.0039455146 -0.13258712 1.3028299
-0.0010993723 -0.13345447 1.3007272
-0.015302422 -0.13518998 1.300723
-0.020872789 -0.13418379 1.3045577
0.026149612 -0.12250784 1.2927892
-0.021726737 -0.12792216 1.2990117
0.030047493 -0.11883136 1.2955723
-0.025505098 -0.12511387 1.3027923
0.026162501 -0.11451532 1.290982
-0.023950735 -0.12018301 1.2974941
0.022666106 -0.10867149 1.2871104
-0.022916982 -0.11382642 1.2930346
0.022474639 -0.10232045 1.2852845
-0.024592506 -0.10764346 1.2914015
0.021956084 -0.096945509 1.2804399
-0.026246255 -0.10273393 1.2866428
0.022687033 -0.093373016 1.2787495
-0.028148541 -0.098883048 1.2862227
-0.029560069 -0.097118653 1.2848828
0.021476278 -0.087094314 1.2771425
-0.028765524 -0.092064947 1.285352
-0.030453512 -0.093275256 1.282781
0.018726813 -0.081652708 1.2738419
-0.029249677 -0.087962501 1.2803687
0.018688861 -0.076355204 1.2713099
-0.03025583 -0.081890382 1.2776718
0.017981015 -0.070877068 1.2680523
-0.031614557 -0.076485991 1.2744987
0.016158609 -0.066024467 1.265507
-0.031605698 -0.071426272 1.2717156
0.01442991 -0.059909143 1.2643746
-0.031605713 -0.065115355 1.2703582
0.011670114 -0.055545408 1.2622535
0.0094876718 -0.053984329 1.2606977
-0.029178334 -0.05835728 1.2657229
-0.030499162 -0.060314503 1.2677343
0.012563115 -0.050309498 1.2589954
0.0065727849 -0.050743319 1.2588515
0.0019573234 -0.050118208 1.2592546
-0.023295099 -0.052973978 1.2625376
-0.027609451 -0.054608986 1.2632934
-0.0333132 -0.055497833 1.2649585
0.017837334 -0.044176161 1.2558482
0.012186788 -0.045480389 1.2544677
0.0072133075 -0.045697406 1.257118
-0.001987299 -0.048489489 1.2597022
-0.0064350758 -0.048195805 1.2596736
-0.011155786 -0.048326615 1.2599519
-0.015703255 -0.049244046 1.2608783
-0.019822789 -0.050506528 1.2620203
-0.029758552 -0.04987881 1.2619222
-0.035162009 -0.050835319 1.2606214
-0.04042507 -0.050765436 1.2634199
0.022200694 -0.036975428 1.2532048
0.017255506 -0.039700679 1.2519357
0.011009386 -0.039618149 1.2537283
-0.035526954 -0.044881161 1.2597762
-0.041847222 -0.04638486 1.2596165
-0.04678569 -0.044777427 1.2621716
0.022180576 -0.032177091 1.2502834
0.015840568 -0.03268645 1.2513195
-0.042210437 -0.039251756 1.2588636
-0.048558123 -0.040177256 1.259478
0.025461514 -0.027896397 1.2501464
0.022013772 -0.027286008 1.2494658
-0.049681731 -0.035394274 1.2587848
-0.052625157 -0.036727551 1.2602952
0.015116144 -0.13250068 1.2958418
0.011310579 -0.13150597 1.2936902
0.0032191575 -0.13228691 1.2975016
-0.0055394787 -0.13341157 1.29588
-0.0083640534 -0.13515639 1.2988937
0.020170985 -0.12724744 1.2923028
0.013412206 -0.12807065 1.2903885
0.0076008979 -0.13009289 1.2920353
0.0023339726 -0.13029422 1.2924234
-0.0027716327 -0.13126597 1.2933836
-0.0091077182 -0.13061742 1.293316
-0.015174503 -0.13124484 1.2968961
0.021990729 -0.11845066 1.2888882
0.019193156 -0.12115091 1.288573
0.016089497 -0.12412813 1.288739
0.0098977517 -0.12465484 1.2869333
-0.0074186306 -0.12661308 1.2891835
-0.012913441 -0.12740803 1.2925084
-0.016533731 -0.12519121 1.2932163
-0.019683609 -0.12316363 1.294304
0.018193083 -0.11449131 1.2853327
0.012747498 -0.11862294 1.2842772
-0.012099391 -0.12143276 1.2875062
-0.017872343 -0.11857004 1.2900198
0.016661376 -0.11042637 1.2821834
-0.018116528 -0.1143595 1.2867029
0.020103194 -0.10392798 1.278706
0.015708838 -0.10648813 1.2792538
-0.018823581 -0.11039337 1.2837416
-0.02269596 -0.10849584 1.2873964
0.023995796 -0.099627592 1.273241
0.020972172 -0.10042524 1.2787225
0.015264489 -0.1020662 1.2773145
0.011214321 -0.10006533 1.2751298
-0.020622926 -0.10620527 1.2811416
-0.025137814 -0.10561118 1.2835584
-0.030449191 -0.105551 1.2811553
0.023265753 -0.095051818 1.2730719
0.023082407 -0.093891948 1.2759472
-0.032347471 -0.099657379 1.2821815
-0.036102682 -0.10104281 1.2787486
0.020448398 -0.089830786 1.2709562
0.012125349 -0.089239597 1.2689188
-0.033538118 -0.094923645 1.2794385
0.016364966 -0.083328612 1.2694408
0.013996443 -0.086804263 1.2690173
-0.023796948 -0.091308251 1.2734345
-0.027484773 -0.089389764 1.2752777
-0.033080287 -0.092401184 1.2761331
0.017863387 -0.078264602 1.265771
-0.03045678 -0.083729319 1.2720513
0.017455235 -0.073465288 1.2642554
-0.031508803 -0.079002783 1.2706196
0.014837125 -0.069050901 1.261115
-0.030804208 -0.074212551 1.2670469
0.013023399 -0.062903643 1.2601836
-0.030680368 -0.067846254 1.2658633
0.011280326 -0.058079667 1.2597803
0.0089464393 -0.058656238 1.256603
-0.028675469 -0.062910952 1.261493
-0.03019944 -0.062770814 1.2651708
0.0054664668 -0.054634232 1.2564914
0.00091638789 -0.053562462 1.2548598
-0.0049908701 -0.052663572 1.2541385
-0.01747998 -0.054076083 1.2557614
-0.022667209 -0.056229781 1.2579241
-0.026307734 -0.05822771 1.26062
-0.0071087871 -0.050970327 1.2559229
-0.01135557 -0.051605977 1.2555602
-0.015405571 -0.051908638 1.2570008
0.0064991005 -0.12579572 1.2872797
0.0013379119 -0.12676448 1.2878309
-0.0038778465 -0.12696926 1.2886286
0.0092262384 -0.11802024 1.2824571
0.0059794411 -0.12027759 1.2829551
0.00028931908 -0.12215603 1.2837721
-0.0056915078 -0.12159745 1.2844728
-0.0093729775 -0.1201237 1.2848747
0.010483062 -0.11348286 1.2802403
0.0038688257 -0.11501744 1.2791545
-0.0010013208 -0.11588655 1.279297
-0.0058176126 -0.11611311 1.2804135
-0.01211348 -0.11603839 1.2831765
0.024170656 -0.10759395 1.2706493
0.021402478 -0.10762554 1.2737755
0.01607546 -0.1069074 1.2740408
0.0097968914 -0.10936049 1.2775953
0.0028839279 -0.10970468 1.2759571
-0.0020092186 -0.11062644 1.2761184
-0.0068633948 -0.11080709 1.2772236
-0.013040224 -0.11194325 1.2805629
0.024131112 -0.10182605 1.2694604
0.023893107 -0.10458767 1.2733322
0.013617694 -0.10504019 1.2741902
0.0092517752 -0.1030518 1.2736036
0.001779601 -0.10456786 1.2734034
-0.0029246043 -0.10545072 1.2735778
-0.007595798 -0.10562812 1.2746215
-0.014040755 -0.10599338 1.2769142
-0.02047001 -0.10621708 1.2783817
-0.026935915 -0.1071415 1.2771556
-0.0331809 -0.107168 1.2773474
0.023622639 -0.098110951 1.2704948
0.021864459 -0.095284678 1.2683921
0.008197492 -0.097813204 1.2706048
0.0027389564 -0.099198326 1.2712084
-0.0028045569 -0.099858172 1.2715778
-0.0091364328 -0.1001742 1.2725005
-0.015780939 -0.10089905 1.273784
-0.02021181 -0.10321306 1.2749355
-0.025515029 -0.10518241 1.2731237
-0.037491001 -0.10491381 1.2765578
0.019038174 -0.093037419 1.266433
0.012864027 -0.091695413 1.2675809
0.0066041593 -0.09336403 1.2687764
0.00066335313 -0.094505847 1.2680138
-0.003487749 -0.095925406 1.2697079
-0.0095668193 -0.095867075 1.2696602
-0.016298031 -0.095790274 1.2712859
-0.021697531 -0.095151879 1.2710091
-0.036657877 -0.096810497 1.2756647
-0.039260007 -0.10036005 1.2736087
0.011693722 -0.087061115 1.2644731
0.0076110754 -0.090309262 1.2646064
-0.018443735 -0.09325593 1.2679921
-0.023038099 -0.090989031 1.2689873
-0.028197499 -0.093471251 1.2696228
-0.033943601 -0.093972392 1.270878
-0.03769692 -0.09632168 1.2698776
0.015254082 -0.080784738 1.2614715
0.014270665 -0.084134206 1.2630365
-0.026471989 -0.088741921 1.2683322
-0.028529482 -0.085736386 1.2671626
0.014800875 -0.076896727 1.2593553
0.01204888 -0.076088153 1.2566836
-0.027749235 -0.080588959 1.2618555
-0.029490674 -0.081905864 1.2651124
0.01328868 -0.071414314 1.2583653
0.010308197 -0.07233686 1.2555145
-0.027228231 -0.076581858 1.2603935
-0.029519888 -0.07625562 1.2639289
0.0088745672 -0.066355594 1.2545848
-0.027425895 -0.070460975 1.2593029
0.0059970152 -0.061309673 1.2528974
0.00026354939 -0.061389044 1.2499287
-0.021577554 -0.063859135 1.2527672
-0.026248457 -0.064956434 1.2570883
-0.00051002577 -0.05720653 1.2515925
-0.0063753743 -0.056823868 1.2508477
-0.011335457 -0.057181396 1.2508634
-0.016092027 -0.057922788 1.2521108
-0.021347189 -0.059562985 1.2543011
0.024298701 -0.10862847 1.265841
0.021618299 -0.11186849 1.2685211
0.016623402 -0.11032932 1.2687062
0.023904774 -0.10570881 1.2659137
0.021740545 -0.10331046 1.263145
0.012743579 -0.10781393 1.2675494
0.010330414 -0.1048888 1.266888
-0.029546233 -0.10737884 1.2738883
-0.033869438 -0.10857782 1.2737081
0.019886 -0.098920055 1.263903
0.012901898 -0.10117811 1.2625481
0.0095150638 -0.10181896 1.2660089
-0.027585046 -0.10412614 1.2703813
-0.033773556 -0.10631568 1.2690305
-0.039565928 -0.10754028 1.2710714
-0.042599194 -0.10592087 1.2696216
0.014938822 -0.097711772 1.2631558
-0.0019145068 -0.094827615 1.2650365
-0.00513524 -0.095426761 1.2652913
-0.0083662588 -0.095557347 1.2658752
-0.027730258 -0.099189669 1.2671056
-0.032056682 -0.10110236 1.2651106
-0.041537262 -0.10160055 1.2685618
-0.043097563 -0.10477491 1.2673092
0.0055857245 -0.090032741 1.2608057
-0.00065404736 -0.092897005 1.2603229
-0.0056269523 -0.094871901 1.26199
-0.011167923 -0.094086081 1.2616882
-0.017555231 -0.092649855 1.2638131
-0.03163974 -0.095827423 1.2666459
-0.035657994 -0.097286865 1.2653273
-0.039244123 -0.097935483 1.267758
0.01088633 -0.084013827 1.2587557
0.0057737138 -0.086638384 1.256551
-0.019552091 -0.0895027 1.2598413
-0.024389835 -0.08800336 1.2633404
0.0093737822 -0.079171844 1.255302
0.0059988219 -0.080867708 1.2535137
-0.02179856 -0.08401157 1.2571261
-0.024899902 -0.083047934 1.2597566
0.007468259 -0.074548043 1.2536926
0.0025007259 -0.076410122 1.2514763
-0.0032223631 -0.074214794 1.2495961
-0.015559094 -0.075610071 1.2511995
-0.019995438 -0.078954265 1.2544004
-0.02452624 -0.07816644 1.2578515
0.0012410227 -0.069107823 1.2499022
-0.0052292775 -0.070248954 1.2485895
-0.010103518 -0.070891686 1.2484117
-0.014792887 -0.071330428 1.2498341
-0.020809548 -0.071601622 1.2527684
0.00067258067 -0.065093368 1.2493652
-0.0058546197 -0.063999228 1.2483603
-0.010642825 -0.06664674 1.2479558
-0.015634576 -0.065105349 1.2496308
-0.021291109 -0.067577258 1.2522205
-0.011028321 -0.062486771 1.2486092
0.024036087 -0.11153452 1.2635372
0.02180575 -0.11447763 1.263111
0.016267426 -0.11186342 1.2636185
0.023339763 -0.10946663 1.2622274
0.020561481 -0.10792248 1.2599101
0.013907544 -0.10965905 1.2606819
0.018809052 -0.10308221 1.2607769
0.014071869 -0.10498269 1.2604204
-0.036483414 -0.10541429 1.2661071
-0.040762447 -0.10767988 1.2670922
-0.042834617 -0.10822998 1.2673913
-0.036043383 -0.10180347 1.2630744
-0.041120864 -0.10420455 1.2635378
-0.043133259 -0.10600542 1.2657579
-0.0062068682 -0.093495369 1.2587254
-0.036649771 -0.10025234 1.2621815
-0.038876027 -0.10005396 1.2629936
-0.0014211591 -0.089404538 1.2545373
-0.0071197804 -0.090535164 1.254277
-0.012672486 -0.090677112 1.255999
0.0025354344 -0.082224205 1.2517344
-0.0025553685 -0.083908781 1.2500832
-0.0083011221 -0.085510857 1.2495594
-0.013934994 -0.085195757 1.2515627
-0.018685745 -0.084624209 1.2544928
-0.0041656885 -0.079545043 1.249475
-0.0082614478 -0.079683706 1.2491883
-0.013196358 -0.08034689 1.2506602
-0.0064094122 -0.07469786 1.2492951
-0.0095080826 -0.075131252 1.2493037
-0.012525568 -0.075389564 1.2500898
0.020177808 -0.11443959 1.2596043
0.016750546 -0.11358734 1.2589066
0.018600145 -0.1116334 1.2580951
0.015293753 -0.11151387 1.2585169
