# .PCD v0.7 - Point Cloud Data file format
VERSION 0.7
FIELDS x y z
SIZE 4 4 4
TYPE F F F
COUNT 1 1 1
WIDTH 847
HEIGHT 1
VIEWPOINT 0 0 0 1 0 0 0
POINTS 847
DATA ascii
0.065108664 0.0002053621 1.3360001
0.068200886 0.00020366591 1.325
0.071828887 0.00020366031 1.325
0.014086655 -0.0035099187 1.3570001
0.017791977 -0.0035073103 1.3560001
0.058353312 -0.0034886359 1.3490001
0.061173953 -0.0034394197 1.33
0.063987747 -0.0033953735 1.3130001
0.067119919 -0.0033720115 1.304
0.07063622 -0.0033693332 1.3030001
0.074545376 -0.0033847503 1.309
0.079382367 -0.003438947 1.33
0.08427158 -0.0034905502 1.35
0.087771237 -0.0034826791 1.3470001
0.091118306 -0.0034696322 1.342
0.09577968 -0.0035057033 1.3560001
0.014076247 -0.0072231311 1.3560001
0.017805062 -0.0072284131 1.3570001
0.050887804 -0.00717428 1.3470001
0.054091144 -0.0071102208 1.335
0.057228521 -0.0070461542 1.3230001
0.06039191 -0.0069927322 1.3130001
0.063646473 -0.006955279 1.3060001
0.066862419 -0.0069178189 1.299
0.070256598 -0.006901653 1.296
0.073804893 -0.0069014532 1.296
0.078069113 -0.0069651459 1.3080001
0.082336284 -0.0070234989 1.319
0.086207196 -0.0070445668 1.3230001
0.08962439 -0.007028352 1.3200001
0.093872376 -0.0070760204 1.3290001
0.010352812 -0.010930883 1.355
0.014076196 -0.010938898 1.3560001
0.043475594 -0.010857251 1.3460001
0.046742357 -0.010760265 1.3340001
0.050132047 -0.010703596 1.327
0.053402152 -0.010630785 1.3180001
0.056709241 -0.010574091 1.3110001
0.059977729 -0.010517386 1.304
0.063353844 -0.010484865 1.3000001
0.066656306 -0.010444267 1.2950001
0.070039511 -0.010419784 1.2920001
0.073462948 -0.010403355 1.2900001
0.077233247 -0.010435298 1.294
0.081274807 -0.010499482 1.302
0.085359819 -0.010563646 1.3100001
0.089148797 -0.010587476 1.3130001
0.093306981 -0.010651605 1.3210001
0.097068347 -0.010667339 1.3230001
0.098867267 -0.010110206 1.2540001
0.10254213 -0.01013398 1.2570001
0.10732903 -0.01026254 1.273
0.01035276 -0.014643879 1.355
0.014096886 -0.01467623 1.358
0.039699309 -0.014513052 1.3430001
0.042893987 -0.014350723 1.3280001
0.046286613 -0.014274826 1.3210001
0.04975402 -0.014231331 1.317
0.053118274 -0.014166205 1.3110001
0.056492683 -0.014111868 1.3060001
0.05988545 -0.014068318 1.302
0.063304804 -0.014035555 1.299
0.066655979 -0.013991972 1.2950001
0.069930747 -0.013937564 1.2900001
0.073348701 -0.013915555 1.2880001
0.076874763 -0.013915135 1.2880001
0.080712609 -0.013968713 1.2930001
0.084642649 -0.01403307 1.299
0.088740982 -0.014119009 1.307
0.092600204 -0.014161717 1.3110001
0.094866797 -0.013966762 1.2930001
0.095664591 -0.013577376 1.2570001
0.097920708 -0.013414826 1.2420001
0.1019706 -0.013500683 1.25
0.10749714 -0.013770119 1.2750001
0.010375615 -0.018397454 1.358
0.021475516 -0.018342925 1.3540001
0.024999499 -0.018207287 1.3440001
0.028681979 -0.018207096 1.3440001
0.032412495 -0.01823397 1.3460001
0.035939272 -0.018152447 1.34
0.039285213 -0.018003168 1.3290001
0.042635318 -0.017880958 1.3200001
0.046076082 -0.017812911 1.3150001
0.049527038 -0.01775839 1.3110001
0.052955858 -0.017703844 1.307
0.056449059 -0.017676366 1.3050001
0.05993107 -0.017648866 1.3030001
0.06340187 -0.017621342 1.3010001
0.066758499 -0.017566703 1.2970001
0.070038728 -0.017498503 1.2920001
0.073462129 -0.017470909 1.2900001
0.076695211 -0.017402669 1.2850001
0.080275141 -0.017415661 1.286
0.083860204 -0.017428631 1.2870001
0.088061467 -0.017563451 1.2970001
0.091186956 -0.017481579 1.291
0.092738502 -0.017115338 1.2640001
0.094598524 -0.016830342 1.243
0.097762406 -0.01678906 1.24
0.1022147 -0.016964382 1.253
0.10833959 -0.017396899 1.2850001
0.1152484 -0.017924124 1.3240001
0.11958683 -0.018031623 1.332
0.12313593 -0.01801726 1.3310001
0.12667909 -0.018002877 1.33
0.13070616 -0.018056152 1.3340001
0.020936085 -0.021499202 1.3200001
0.023976265 -0.020994106 1.289
0.02748668 -0.020977596 1.2880001
0.031449024 -0.021270508 1.3060001
0.035295308 -0.021433089 1.3160001
0.039018866 -0.021497915 1.3200001
0.042538084 -0.021448707 1.317
0.046005648 -0.021383187 1.3130001
0.049375538 -0.021285066 1.307
0.05287442 -0.02125206 1.3050001
0.05644862 -0.021251593 1.3050001
0.060114574 -0.021283666 1.307
0.063742504 -0.021299426 1.3080001
0.067118272 -0.021233737 1.304
0.07036344 -0.021135457 1.2980001
0.073689342 -0.021069715 1.294
0.076873675 -0.020971388 1.2880001
0.080212109 -0.020921882 1.2850001
0.083598942 -0.020888634 1.2830001
0.087313935 -0.020936757 1.286
0.089702979 -0.020675534 1.2700001
0.091784 -0.020365464 1.251
0.094445601 -0.020201901 1.2410001
0.098077036 -0.020249939 1.2440001
0.10302968 -0.020558383 1.263
0.1093505 -0.02111093 1.2970001
0.11437706 -0.021386705 1.314
0.11814948 -0.021418309 1.3160001
0.12174731 -0.021417325 1.3160001
0.12515418 -0.021383772 1.314
0.12884356 -0.021399016 1.3150001
0.13273934 -0.021446776 1.3180001
0.13768542 -0.021657219 1.3310001
0.020793146 -0.024944747 1.3110001
0.023566831 -0.024107326 1.2670001
0.02684621 -0.023935828 1.258
0.030437363 -0.024049703 1.2640001
0.034275826 -0.024315754 1.2780001
0.038309075 -0.02465786 1.296
0.042279296 -0.024904795 1.309
0.045900106 -0.024923382 1.3100001
0.049299527 -0.024827782 1.3050001
0.052792892 -0.024789225 1.3030001
0.056534614 -0.02486478 1.307
0.060481973 -0.02501639 1.3150001
0.064472899 -0.025167963 1.3230001
0.068198539 -0.025205351 1.325
0.071338549 -0.025033457 1.3160001
0.074258141 -0.024804477 1.304
0.077111714 -0.024575474 1.2920001
0.080273792 -0.024460571 1.286
0.083598167 -0.02440271 1.2830001
0.086498395 -0.024230698 1.274
0.08857207 -0.023849465 1.2540001
0.091122866 -0.023620373 1.2420001
0.094444752 -0.023600454 1.2410001
0.098628029 -0.023789687 1.251
0.10417081 -0.024283128 1.2770001
0.11027692 -0.024871575 1.3080001
0.11455015 -0.025022613 1.3160001
0.11814842 -0.025021499 1.3160001
0.12165372 -0.02500134 1.3150001
0.12496259 -0.024943132 1.312
0.1280586 -0.02484688 1.307
0.1313282 -0.02478862 1.304
0.13509813 -0.024825389 1.3060001
0.14004637 -0.025071206 1.319
0.021268731 -0.029189786 1.3410001
0.023678178 -0.027709359 1.273
0.026739221 -0.027273737 1.253
0.030075839 -0.027186347 1.2490001
0.033578146 -0.027251283 1.2520001
0.037392337 -0.027533837 1.2650001
0.041535974 -0.02799046 1.286
0.045549236 -0.028294681 1.3000001
0.049223442 -0.028359434 1.3030001
0.052832846 -0.028380619 1.304
0.056620516 -0.028488817 1.309
0.060803283 -0.028771076 1.322
0.065398119 -0.029205622 1.342
0.069896333 -0.029553058 1.358
0.07328929 -0.029421682 1.3520001
0.075624049 -0.028898567 1.3280001
0.078006141 -0.028440731 1.307
0.080834739 -0.02817872 1.2950001
0.083792761 -0.027981961 1.286
0.085954346 -0.027545845 1.266
0.088217989 -0.027174991 1.2490001
0.091121919 -0.027021695 1.2420001
0.094900392 -0.027129445 1.2470001
0.099415384 -0.027432941 1.261
0.10514862 -0.02804094 1.289
0.11078163 -0.02858359 1.314
0.11524531 -0.028799877 1.3240001
0.11931433 -0.028907353 1.3290001
0.12313268 -0.028949535 1.3310001
0.12629476 -0.02883943 1.3260001
0.12884112 -0.028598808 1.3150001
0.13142759 -0.02837993 1.3050001
0.13457954 -0.028291512 1.3010001
0.13834617 -0.028333541 1.3030001
0.14364789 -0.028679943 1.319
0.15082267 -0.029374158 1.3510001
0.024496291 -0.032275412 1.317
0.027058994 -0.031074254 1.268
0.030075472 -0.030608267 1.2490001
0.033336364 -0.030460823 1.243
0.036830265 -0.030533889 1.2460001
0.040663425 -0.030851962 1.2590001
0.044742823 -0.031292502 1.2770001
0.048807308 -0.031659469 1.2920001
0.052710664 -0.031879354 1.3010001
0.056663089 -0.032099184 1.3100001
0.060894541 -0.032441478 1.3240001
0.065543525 -0.032955218 1.345
0.06984403 -0.03324838 1.3570001
0.073125787 -0.033051465 1.3490001
0.075566202 -0.032511514 1.327
0.078005217 -0.032020546 1.307
0.080896191 -0.031750057 1.296
0.083400831 -0.031357054 1.2800001
0.085342281 -0.030792553 1.2570001
0.087934412 -0.030497506 1.245
0.091120847 -0.030422905 1.2420001
0.09527979 -0.030666687 1.2520001
0.10012376 -0.031106355 1.2700001
0.10555524 -0.0316929 1.294
0.11019019 -0.032009959 1.307
0.11541806 -0.032473892 1.3260001
0.1206596 -0.032913253 1.3440001
0.12525898 -0.033156626 1.3540001
0.12876965 -0.0331061 1.3520001
0.1307012 -0.032663766 1.3340001
0.13223176 -0.032147985 1.3130001
0.13468143 -0.031877045 1.302
0.13781373 -0.031777475 1.2980001
0.14190379 -0.031898201 1.3030001
0.14736024 -0.032312628 1.3200001
0.15359519 -0.032873843 1.3430001
0.025146956 -0.036837209 1.3520001
0.027848193 -0.035556249 1.3050001
0.030484412 -0.034493238 1.266
0.033496823 -0.034029607 1.2490001
0.036770646 -0.033892877 1.2440001
0.040275302 -0.033974063 1.2470001
0.044006441 -0.034218658 1.256
0.048126679 -0.034708396 1.274
0.052385829 -0.035225306 1.2930001
0.05657582 -0.035633173 1.3080001
0.060571771 -0.035877518 1.317
0.064178191 -0.035876635 1.317
0.067218184 -0.03557606 1.3060001
0.069980823 -0.035166491 1.291
0.073002703 -0.034920331 1.2820001
0.076333083 -0.034837563 1.279
0.079771578 -0.034809232 1.2780001
0.082487531 -0.034481253 1.266
0.085069582 -0.034126017 1.253
0.08807452 -0.0339614 1.2470001
0.091779932 -0.034069087 1.251
0.096115649 -0.034394581 1.263
0.10091081 -0.034856159 1.2800001
0.10522757 -0.035127047 1.2900001
0.10917708 -0.035261724 1.2950001
0.11419799 -0.035723079 1.312
0.12074779 -0.036619972 1.345
0.13384141 -0.036177482 1.3290001
0.1354038 -0.035631247 1.309
0.1381305 -0.035411663 1.3010001
0.14135745 -0.035328142 1.2980001
0.14534894 -0.035435107 1.302
0.15050539 -0.035814159 1.3160001
0.15644027 -0.036356408 1.3360001
0.028509293 -0.040060904 1.3360001
0.031230401 -0.038890999 1.2970001
0.033979055 -0.037990931 1.2670001
0.037006561 -0.037540603 1.2520001
0.040306993 -0.037420057 1.248
0.043725494 -0.037419401 1.248
0.047408227 -0.037628572 1.2550001
0.051372185 -0.038017571 1.268
0.055536903 -0.03849645 1.284
0.059191123 -0.038585499 1.2870001
0.062179316 -0.038254768 1.276
0.065004058 -0.037864041 1.263
0.068028383 -0.037623182 1.2550001
0.071293317 -0.037532166 1.2520001
0.074720576 -0.037531037 1.2520001
0.078334786 -0.037619788 1.2550001
0.081574157 -0.03752863 1.2520001
0.084796771 -0.037437428 1.2490001
0.088285118 -0.037466072 1.25
0.092292137 -0.037704475 1.258
0.09664695 -0.038062692 1.2700001
0.10090935 -0.03836089 1.2800001
0.10473663 -0.038479201 1.284
0.10858537 -0.038597461 1.2880001
0.1128037 -0.038835522 1.296
0.11868127 -0.039612874 1.322
0.13655861 -0.040623959 1.3560001
0.13653974 -0.039543457 1.3200001
0.13887174 -0.039181951 1.3080001
0.14157329 -0.038940255 1.3000001
0.14456548 -0.038788397 1.2950001
0.14844473 -0.038876116 1.2980001
0.15421331 -0.039442975 1.317
0.028786231 -0.044146188 1.3490001
0.031783693 -0.043196641 1.3200001
0.034675766 -0.04231251 1.2930001
0.037597101 -0.041624684 1.2720001
0.040693894 -0.041231338 1.2600001
0.043899953 -0.041001547 1.253
0.047218576 -0.040902603 1.25
0.050804161 -0.041032657 1.2540001
0.054541189 -0.041260809 1.261
0.058086384 -0.041325293 1.263
0.061154991 -0.041062523 1.2550001
0.064128064 -0.040766995 1.2460001
0.067214198 -0.040569574 1.24
0.070494965 -0.04050298 1.238
0.073943533 -0.040534478 1.2390001
0.077459686 -0.040598638 1.2410001
0.080921307 -0.04063002 1.2420001
0.084523842 -0.04072677 1.245
0.088566221 -0.041019734 1.2540001
0.092804208 -0.04137804 1.2650001
0.096949801 -0.041670848 1.274
0.10075007 -0.041800037 1.2780001
0.1044087 -0.041863758 1.2800001
0.10824642 -0.041992825 1.284
0.11210563 -0.042121835 1.2880001
0.11733281 -0.042741299 1.307
0.14067449 -0.043317322 1.325
0.14276902 -0.042857375 1.3110001
0.1450098 -0.042462807 1.299
0.14787067 -0.042264353 1.2930001
0.15198624 -0.042425413 1.2980001
0.028828394 -0.047912389 1.3510001
0.031903517 -0.046989754 1.325
0.035077415 -0.046386253 1.3080001
0.038158011 -0.045782696 1.291
0.041339092 -0.045391869 1.2800001
0.044424701 -0.044965532 1.268
0.047444381 -0.044539146 1.256
0.050722234 -0.044396397 1.2520001
0.054064453 -0.04432451 1.25
0.057441495 -0.044288028 1.2490001
0.060569171 -0.044074193 1.243
0.063663743 -0.043860313 1.2370001
0.066833586 -0.043717287 1.233
0.070152082 -0.043680586 1.2320001
0.073524483 -0.043679275 1.2320001
0.07702142 -0.043748811 1.2340001
0.080528975 -0.043818284 1.2360001
0.084250815 -0.043994043 1.2410001
0.088494048 -0.04441788 1.253
0.092875957 -0.044877075 1.266
0.096948124 -0.045158949 1.274
0.10043301 -0.045157179 1.274
0.1041622 -0.045261681 1.2770001
0.10816027 -0.045472447 1.2830001
0.1121037 -0.045647692 1.2880001
0.1170615 -0.046212699 1.304
0.14603363 -0.04750764 1.3410001
0.14657024 -0.046513185 1.3130001
0.14878312 -0.046085555 1.3010001
0.15163246 -0.045870453 1.2950001
0.15576652 -0.046044935 1.3000001
0.031951059 -0.050695453 1.327
0.03513037 -0.050045334 1.3100001
0.038452845 -0.049700782 1.3010001
0.041951913 -0.049623571 1.299
0.045334745 -0.0494317 1.294
0.048161171 -0.048704963 1.2750001
0.051045358 -0.048130985 1.2600001
0.054063424 -0.047747955 1.25
0.057210453 -0.047517668 1.2440001
0.060373109 -0.047325518 1.2390001
0.063559592 -0.047171511 1.235
0.066723913 -0.047017451 1.2310001
0.069979928 -0.046939719 1.2290001
0.073403731 -0.046976499 1.23
0.076957539 -0.047089603 1.233
0.080462307 -0.047164451 1.235
0.084181339 -0.047353785 1.24
0.088280514 -0.047733989 1.25
0.092800863 -0.048305035 1.2650001
0.096946314 -0.048646864 1.274
0.10058881 -0.048721325 1.276
0.10416027 -0.048757534 1.2770001
0.10815828 -0.048984583 1.2830001
0.11218867 -0.049211547 1.289
0.15129635 -0.050484583 1.3230001
0.15315193 -0.049909409 1.3080001
0.15624304 -0.049753945 1.304
0.032094862 -0.054575652 1.3330001
0.035210095 -0.053756099 1.3130001
0.038511157 -0.0533459 1.3030001
0.042177115 -0.053467862 1.3060001
0.04599946 -0.053753503 1.3130001
0.048991181 -0.053097468 1.2970001
0.051489934 -0.052032001 1.271
0.054192066 -0.051294006 1.253
0.057117306 -0.050842527 1.2420001
0.060176969 -0.050554737 1.235
0.063403912 -0.050430633 1.2320001
0.066668347 -0.050347392 1.23
0.069978505 -0.050305024 1.2290001
0.073342569 -0.050303519 1.2290001
0.076831155 -0.050383799 1.2310001
0.080395527 -0.050504949 1.2340001
0.084111758 -0.050707866 1.2390001
0.088066883 -0.051033482 1.2470001
0.092432216 -0.051563621 1.2600001
0.096716084 -0.052011807 1.271
0.10042915 -0.052132539 1.274
0.10399507 -0.052171353 1.2750001
0.10790324 -0.052373767 1.2800001
0.11218645 -0.052739751 1.289
0.032238614 -0.058488492 1.3390001
0.035343397 -0.057570435 1.3180001
0.038628533 -0.057089116 1.307
0.042208482 -0.057088196 1.307
0.046173614 -0.057567656 1.3180001
0.049292278 -0.056998763 1.3050001
0.051772382 -0.055818349 1.2780001
0.054320622 -0.054856278 1.256
0.057162046 -0.054287247 1.243
0.060273115 -0.054023884 1.2370001
0.063505456 -0.053891473 1.2340001
0.0667753 -0.053802665 1.2320001
0.07009086 -0.053757463 1.2310001
0.073460326 -0.053755853 1.2310001
0.077016734 -0.053885177 1.2340001
0.080524087 -0.053970758 1.2360001
0.084177837 -0.054143582 1.24
0.087923728 -0.054359987 1.245
0.0921368 -0.054838281 1.256
0.096333563 -0.055272803 1.266
0.10034817 -0.055576246 1.273
0.10407443 -0.055704974 1.276
0.10798524 -0.055920929 1.281
0.11218408 -0.056267753 1.289
0.032478616 -0.062619619 1.3490001
0.035503462 -0.061458327 1.3240001
0.038657185 -0.060714737 1.3080001
0.042078316 -0.060481671 1.3030001
0.045997377 -0.060944784 1.3130001
0.049215585 -0.060479473 1.3030001
0.051852196 -0.059410721 1.2800001
0.054449111 -0.058434743 1.2590001
0.057298675 -0.057830039 1.2460001
0.06036916 -0.057503745 1.2390001
0.063606903 -0.057363037 1.2360001
0.066936351 -0.057315066 1.235
0.070203111 -0.057220619 1.233
0.073577985 -0.057218913 1.233
0.077014968 -0.057263535 1.2340001
0.080522239 -0.057354476 1.2360001
0.084040143 -0.057445344 1.238
0.087709881 -0.057628933 1.2420001
0.091621213 -0.057951622 1.2490001
0.095874824 -0.058459792 1.2600001
0.099951766 -0.058828671 1.268
0.10407206 -0.059197448 1.276
0.10789852 -0.059380565 1.2800001
0.11209454 -0.059749138 1.2880001
0.03259819 -0.066559464 1.3540001
0.03544895 -0.064985558 1.322
0.038567565 -0.064148955 1.3050001
0.041915808 -0.063803837 1.2980001
0.045821078 -0.064294271 1.3080001
0.0491766 -0.063998133 1.302
0.051931925 -0.063013785 1.2820001
0.054534256 -0.06198024 1.261
0.057435218 -0.06138901 1.2490001
0.060562566 -0.061092619 1.243
0.063811183 -0.0609436 1.24
0.067097306 -0.060843654 1.238
0.070372209 -0.060743641 1.2360001
0.073635869 -0.060643543 1.2340001
0.077075504 -0.060690798 1.235
0.080585435 -0.060787112 1.2370001
0.084105991 -0.060883336 1.2390001
0.087637141 -0.060979478 1.2410001
0.091472305 -0.061272077 1.2470001
0.095720328 -0.061810233 1.258
0.099870548 -0.062250022 1.2670001
0.10415114 -0.062738813 1.2770001
0.10781164 -0.062834464 1.279
0.11191782 -0.063175663 1.286
0.035340767 -0.068397783 1.3180001
0.038448341 -0.067514576 1.3010001
0.041720964 -0.067046449 1.2920001
0.045504604 -0.067408532 1.299
0.048910931 -0.0671997 1.2950001
0.051809054 -0.066368096 1.279
0.054532841 -0.065432653 1.261
0.057525691 -0.064912267 1.251
0.060658433 -0.064599365 1.245
0.063912451 -0.064442046 1.2420001
0.06709557 -0.064232767 1.238
0.070313454 -0.064075299 1.235
0.073514625 -0.063917749 1.2320001
0.076948702 -0.063967638 1.233
0.080518223 -0.064121202 1.2360001
0.08410383 -0.064274676 1.2390001
0.087705523 -0.064428054 1.2420001
0.091543317 -0.064736947 1.248
0.095793992 -0.065305091 1.2590001
0.10002566 -0.065821238 1.2690001
0.10423006 -0.066285394 1.2780001
0.10772464 -0.06628266 1.2780001
0.11174095 -0.066591002 1.284
0.032596435 -0.073974103 1.3540001
0.035259351 -0.071842432 1.3150001
0.038476832 -0.07113117 1.302
0.041719817 -0.070583723 1.2920001
0.045398261 -0.070801012 1.296
0.048796285 -0.070581175 1.2920001
0.051726617 -0.069760323 1.2770001
0.054574594 -0.068939418 1.2620001
0.057616085 -0.068446204 1.253
0.060754228 -0.068116799 1.2470001
0.063962169 -0.067896552 1.243
0.06714794 -0.067676239 1.2390001
0.070368476 -0.067510456 1.2360001
0.073572293 -0.067344591 1.233
0.07700903 -0.067397125 1.2340001
0.080581203 -0.067558803 1.2370001
0.084305204 -0.067829587 1.2420001
0.088126846 -0.068154886 1.248
0.092127666 -0.068589292 1.256
0.096247956 -0.069078185 1.2650001
0.10033827 -0.069512337 1.273
0.1042273 -0.069782577 1.2780001
0.10772179 -0.069779694 1.2780001
0.11156394 -0.06999512 1.2820001
0.035526451 -0.076016188 1.325
0.038712129 -0.075154535 1.3100001
0.041944638 -0.074522272 1.299
0.045431983 -0.074406251 1.2970001
0.048794881 -0.074118026 1.2920001
0.051765636 -0.073313415 1.2780001
0.054702755 -0.072566107 1.2650001
0.057752378 -0.072048172 1.256
0.060996074 -0.071816973 1.2520001
0.064166166 -0.071528345 1.2470001
0.067362808 -0.071296975 1.243
0.070537262 -0.07106553 1.2390001
0.07386855 -0.071006075 1.238
0.077256456 -0.071003877 1.238
0.080969758 -0.07128834 1.243
0.084845833 -0.071687393 1.25
0.088689253 -0.07202898 1.256
0.092418469 -0.072255768 1.2600001
0.096093088 -0.07242509 1.263
0.10009903 -0.072823681 1.2700001
0.1042244 -0.073279485 1.2780001
0.10797165 -0.073448472 1.281
0.11164787 -0.073560022 1.2830001
0.035900742 -0.080484807 1.3390001
0.039183762 -0.079702243 1.3260001
0.042363122 -0.078859478 1.312
0.045675803 -0.078377269 1.304
0.049057763 -0.07807529 1.299
0.052088108 -0.077292383 1.286
0.055090282 -0.076569512 1.274
0.058164459 -0.076026857 1.2650001
0.061383992 -0.075724535 1.2600001
0.064627334 -0.075482205 1.256
0.067848526 -0.0752398 1.2520001
0.071161382 -0.075117484 1.25
0.074522674 -0.075055175 1.2490001
0.077940591 -0.07505285 1.2490001
0.081618734 -0.075290784 1.253
0.085454203 -0.075648785 1.2590001
0.089180917 -0.075886488 1.263
0.09241575 -0.075703509 1.2600001
0.09563379 -0.075520441 1.2570001
0.099544376 -0.075877987 1.263
0.10389514 -0.076535784 1.274
0.10805279 -0.077013217 1.2820001
0.11173166 -0.077130102 1.284
0.039773513 -0.084588595 1.3460001
0.042846106 -0.083393209 1.327
0.04595457 -0.082449131 1.312
0.049169514 -0.081819199 1.302
0.052126974 -0.080874957 1.2870001
0.055218272 -0.080244839 1.2770001
0.058392525 -0.079803154 1.2700001
0.061820507 -0.079738393 1.2690001
0.065242752 -0.079673521 1.268
0.068605065 -0.079545729 1.266
0.071956143 -0.079417825 1.2640001
0.075355649 -0.079352655 1.263
0.078749381 -0.079287387 1.2620001
0.082332715 -0.079410478 1.2640001
0.085790932 -0.079407834 1.2640001
0.089107566 -0.07927943 1.2620001
0.092046194 -0.078836858 1.2550001
0.095098302 -0.078519821 1.25
0.098832011 -0.07876806 1.2540001
0.10332115 -0.079581469 1.2670001
0.10779665 -0.080331892 1.279
0.11181529 -0.080705337 1.2850001
0.043361291 -0.088074297 1.3430001
0.045918033 -0.085974246 1.3110001
0.048752498 -0.084661081 1.291
0.051679742 -0.083675742 1.276
0.054913793 -0.083280504 1.2700001
0.058252688 -0.083081901 1.2670001
0.061769772 -0.083145469 1.268
0.065394983 -0.083340064 1.271
0.069036335 -0.083534539 1.274
0.072579995 -0.083597772 1.2750001
0.075949833 -0.083464175 1.273
0.079246014 -0.083264917 1.2700001
0.082525454 -0.083065562 1.2670001
0.085856035 -0.082931682 1.2650001
0.089104697 -0.082732134 1.2620001
0.092043251 -0.082270287 1.2550001
0.095095254 -0.081939459 1.25
0.098513603 -0.081936307 1.25
0.10274705 -0.082588531 1.2600001
0.10737185 -0.083502755 1.274
0.11189876 -0.084285729 1.286
0.045110915 -0.087990575 1.2880001
0.04795783 -0.086759277 1.2700001
0.051070482 -0.086142726 1.261
0.054479539 -0.086072586 1.2600001
0.057974853 -0.086138941 1.261
0.061621539 -0.086410113 1.2650001
0.065238409 -0.086612828 1.268
0.068925634 -0.086883739 1.2720001
0.072520614 -0.087017916 1.274
0.075827949 -0.086810462 1.271
0.079118557 -0.086602889 1.268
0.082392439 -0.086395249 1.2650001
0.085785292 -0.086324066 1.2640001
0.089172319 -0.086252786 1.263
0.09211351 -0.085771672 1.256
0.095016025 -0.085290477 1.2490001
0.098116308 -0.085014068 1.245
0.10225438 -0.085625231 1.2540001
0.10719976 -0.086850755 1.2720001
0.11259117 -0.088349178 1.294
0.041937735 -0.092298009 1.299
0.044338807 -0.089951724 1.266
0.047540762 -0.089452706 1.2590001
0.050947178 -0.089379877 1.258
0.054520849 -0.089591116 1.261
0.058110721 -0.089802228 1.2640001
0.061668072 -0.089942157 1.266
0.065236114 -0.090081975 1.268
0.068760656 -0.09015061 1.2690001
0.072290383 -0.090219125 1.2700001
0.075527012 -0.089932345 1.266
0.078866221 -0.089787528 1.2640001
0.082259297 -0.089713626 1.263
0.085850172 -0.089852713 1.2650001
0.089522243 -0.090062693 1.268
0.092623666 -0.089704342 1.263
0.095393099 -0.089061819 1.2540001
0.098034129 -0.088348225 1.2440001
0.10192472 -0.088770829 1.25
0.10685899 -0.09004546 1.268
0.1134574 -0.092598066 1.304
0.044162069 -0.093046494 1.261
0.047539014 -0.092897214 1.2590001
0.051147789 -0.093190499 1.263
0.054951195 -0.093778796 1.271
0.058614291 -0.094071813 1.2750001
0.062104203 -0.094069555 1.2750001
0.065439515 -0.093845844 1.2720001
0.068758145 -0.093622021 1.2690001
0.072173916 -0.093545631 1.268
0.075464614 -0.093321592 1.2650001
0.078738585 -0.093097448 1.2620001
0.082256317 -0.093168229 1.263
0.085847072 -0.093312688 1.2650001
0.08966022 -0.093678296 1.2700001
0.092987016 -0.093527421 1.268
0.095693953 -0.092786402 1.258
0.098109424 -0.091824055 1.245
0.10159494 -0.09189418 1.2460001
0.10643385 -0.093144163 1.263
0.044510588 -0.097261406 1.271
0.048028056 -0.097336128 1.2720001
0.051874764 -0.098022886 1.281
0.055856999 -0.098862521 1.2920001
0.059485499 -0.099013336 1.294
0.062735043 -0.098551877 1.2880001
0.065848604 -0.097937293 1.2800001
0.069026463 -0.097475626 1.274
0.072398871 -0.097319901 1.2720001
0.07570038 -0.09708754 1.2690001
0.078985184 -0.096855074 1.266
0.082448617 -0.09685199 1.266
0.086047456 -0.097001798 1.268
0.089868665 -0.097380951 1.273
0.093423553 -0.097453989 1.274
0.096375011 -0.096914962 1.2670001
0.098736204 -0.095840424 1.253
0.10183581 -0.095530711 1.2490001
0.10617714 -0.096368149 1.2600001
0.053006552 -0.10374591 1.309
0.056978825 -0.10445701 1.3180001
0.060264628 -0.1038999 1.3110001
0.06317094 -0.10278792 1.2970001
0.066051796 -0.10175511 1.284
0.069240488 -0.10127695 1.2780001
0.0725668 -0.10103641 1.2750001
0.075816743 -0.10071649 1.271
0.079044506 -0.10039648 1.2670001
0.082510561 -0.10039331 1.2670001
0.086044125 -0.10046922 1.268
0.0898652 -0.10086196 1.273
0.093493298 -0.10101683 1.2750001
0.09675163 -0.10077544 1.2720001
0.099599205 -0.10013783 1.2640001
0.1028103 -0.099896252 1.261
0.1071 -0.10068437 1.271
0.057841107 -0.10970137 1.3380001
0.060629927 -0.10814114 1.319
0.063411906 -0.10674483 1.302
0.066460654 -0.10592233 1.2920001
0.069616936 -0.10534567 1.2850001
0.072848447 -0.10493286 1.2800001
0.076111957 -0.10460191 1.276
0.079415649 -0.10435282 1.273
0.082832858 -0.10426755 1.2720001
0.086379983 -0.1043461 1.273
0.090143993 -0.10467041 1.2770001
0.093636237 -0.1046667 1.2770001
0.097204164 -0.10474483 1.2780001
0.10046201 -0.10449499 1.2750001
0.10394765 -0.10449091 1.2750001
0.10802268 -0.10506035 1.2820001
0.11326652 -0.10669493 1.302
0.06035161 -0.11123963 1.3130001
0.063263163 -0.1100509 1.299
0.06645789 -0.10945514 1.2920001
0.069668218 -0.10894397 1.286
0.072902337 -0.1085174 1.281
0.076287754 -0.10834485 1.279
0.079599522 -0.10808744 1.276
0.083024807 -0.10799935 1.2750001
0.086444296 -0.1079111 1.274
0.090140298 -0.10816153 1.2770001
0.093705744 -0.10824241 1.2780001
0.097276248 -0.10832315 1.279
0.10085188 -0.10840376 1.2800001
0.10451411 -0.10856891 1.2820001
0.10852388 -0.10907265 1.2880001
0.11343593 -0.110423 1.304
0.060257092 -0.11465465 1.3110001
0.063211754 -0.11351505 1.2980001
0.066506483 -0.11307497 1.2930001
0.069827758 -0.1127222 1.289
0.073183767 -0.11245675 1.286
0.076582715 -0.11227863 1.284
0.079908036 -0.11201292 1.281
0.083346866 -0.11192197 1.2800001
0.08671204 -0.11174345 1.2780001
0.090348259 -0.11191453 1.2800001
0.093848422 -0.11191058 1.2800001
0.097500347 -0.11208137 1.2820001
0.10100523 -0.11207714 1.2820001
0.10467277 -0.11224763 1.284
0.10868786 -0.11276763 1.2900001
0.11369219 -0.11424901 1.307
0.060254432 -0.11823868 1.3110001
0.063111559 -0.11688308 1.296
0.066400684 -0.11642925 1.291
0.069824688 -0.11624585 1.289
0.073237456 -0.11606229 1.2870001
0.076698646 -0.11596878 1.286
0.080029301 -0.11569478 1.2830001
0.08353857 -0.11569118 1.2830001
0.08697965 -0.11559723 1.2820001
0.09062665 -0.11577365 1.284
0.094064325 -0.11567944 1.2830001
0.097724274 -0.11585556 1.2850001
0.10123724 -0.11585121 1.2850001
0.10507586 -0.11620732 1.289
0.10935722 -0.11701404 1.2980001
0.11481812 -0.11899243 1.3200001
0.060435522 -0.12219393 1.3150001
0.063352183 -0.12089019 1.3010001
0.066551968 -0.12023675 1.294
0.069984034 -0.12004778 1.2920001
0.073404878 -0.11985868 1.2900001
0.076933749 -0.11985524 1.2900001
0.080524698 -0.11994456 1.291
0.084381238 -0.12040535 1.296
0.088061273 -0.12058727 1.2980001
0.091681302 -0.12067609 1.299
0.094866566 -0.12020738 1.294
0.098328322 -0.12011018 1.2930001
0.101863 -0.12010566 1.2930001
0.10580486 -0.12056546 1.2980001
0.11053185 -0.12186099 1.312
0.060800359 -0.12655319 1.3230001
0.063738771 -0.12521107 1.309
0.066857457 -0.12434713 1.3000001
0.070197448 -0.1239613 1.296
0.073685974 -0.12386228 1.2950001
0.077526554 -0.12433697 1.3000001
0.081581302 -0.12509839 1.3080001
0.085874788 -0.12614651 1.319
0.089888923 -0.12671626 1.325
0.093370907 -0.12652074 1.3230001
0.096255124 -0.12556005 1.3130001
0.099464491 -0.12507738 1.3080001
0.10296125 -0.1249771 1.307
0.10694121 -0.12545039 1.312
0.111959 -0.12707084 1.3290001
0.064466089 -0.13026394 1.3240001
0.067419969 -0.12898175 1.3110001
0.070735738 -0.12848651 1.3060001
0.074422151 -0.12867978 1.3080001
0.078894444 -0.13015176 1.3230001
0.10602862 -0.13238342 1.3460001
0.10824036 -0.13060805 1.3280001
0.11279621 -0.13168468 1.3390001
0.068085186 -0.13387822 1.3240001
0.071544677 -0.1335714 1.3210001
0.07567022 -0.13447779 1.33
0.1140544 -0.13685802 1.3540001
0.068904512 -0.13915673 1.34
0.072515927 -0.13904932 1.3390001
0.15494025 -0.14193168 1.238
0.15767591 -0.14135061 1.233
0.15180369 -0.1423738 1.2130001
0.1547268 -0.14201382 1.21
0.15367293 -0.14748308 1.228
0.1556139 -0.14615394 1.217
0.15228012 -0.15279789 1.217
0.15656374 -0.15052141 1.199
