# .PCD v0.7 - Point Cloud Data file format
VERSION 0.7
FIELDS x y z
SIZE 4 4 4
TYPE F F F
COUNT 1 1 1
WIDTH 803
HEIGHT 1
VIEWPOINT 0 0 0 1 0 0 0
POINTS 803
DATA ascii
-0.0081882719 -0.01460068 1.3510001
-0.0044396948 -0.014449413 1.337
-0.0157538 -0.018492155 1.365
-0.011802236 -0.018167116 1.3410001
-0.0080366982 -0.017963974 1.3260001
-0.0043765744 -0.017855637 1.3180001
-0.00076666154 -0.0178963 1.3210001
0.0028920954 -0.018140148 1.3390001
-0.01930826 -0.022020495 1.3520001
-0.015418983 -0.021760046 1.3360001
-0.011643725 -0.021548426 1.3230001
-0.0079639042 -0.021401921 1.314
-0.0043466548 -0.021320535 1.309
-0.00075969112 -0.021320557 1.309
0.0028488748 -0.021483423 1.319
0.0065465337 -0.021760276 1.3360001
0.010291491 -0.021939367 1.3470001
0.013930597 -0.021857822 1.342
0.017634086 -0.021890264 1.3440001
0.021364324 -0.021938959 1.3470001
-0.030758785 -0.026009634 1.3670001
-0.026756506 -0.025762575 1.3540001
-0.022876414 -0.025572551 1.3440001
-0.019051021 -0.025382487 1.3340001
-0.015268805 -0.025173359 1.3230001
-0.011573208 -0.02502127 1.3150001
-0.0079274653 -0.024888178 1.3080001
-0.0043333322 -0.024831155 1.3050001
-0.00075620203 -0.024793128 1.3030001
0.00282293 -0.024869226 1.307
0.0064533721 -0.025059458 1.317
0.010130949 -0.025230624 1.3260001
0.013785142 -0.025268558 1.3280001
0.017371513 -0.025192292 1.3240001
0.020682121 -0.024811553 1.304
0.023715636 -0.024259543 1.2750001
-0.060537439 -0.029663775 1.363
-0.056679517 -0.029599149 1.36
-0.0342765 -0.029558729 1.358
-0.030240938 -0.029254369 1.3440001
-0.026440045 -0.029124094 1.3380001
-0.022654897 -0.028972005 1.3310001
-0.018922286 -0.028841641 1.325
-0.015222477 -0.02871123 1.319
-0.011555483 -0.028580781 1.3130001
-0.0079273805 -0.028472057 1.3080001
-0.004329965 -0.028385054 1.304
-0.00075503316 -0.02831978 1.3010001
0.0028121006 -0.028341537 1.302
0.0064043016 -0.028450321 1.307
0.010039158 -0.028602602 1.314
0.013660433 -0.028646002 1.3160001
0.017056439 -0.028297547 1.3000001
0.020142647 -0.027644316 1.2700001
0.023361973 -0.027339322 1.256
0.026931284 -0.027469639 1.2620001
-0.059293106 -0.03271145 1.335
-0.054678407 -0.032148603 1.312
-0.051474378 -0.03239432 1.322
-0.048975497 -0.033154596 1.353
-0.03788453 -0.033180777 1.3540001
-0.033897482 -0.032911669 1.3430001
-0.030015567 -0.032691527 1.3340001
-0.026261875 -0.032569356 1.3290001
-0.022535477 -0.032447141 1.3240001
-0.018864933 -0.032373887 1.3210001
-0.01519921 -0.032276075 1.317
-0.011555342 -0.032178219 1.3130001
-0.0079272836 -0.032055806 1.3080001
-0.0043265917 -0.031933349 1.3030001
-0.00075386319 -0.031835351 1.299
0.0028034272 -0.031810831 1.2980001
0.0063699246 -0.031859785 1.3000001
0.0099702748 -0.031982217 1.3050001
0.013483802 -0.03183502 1.299
0.016701983 -0.031197635 1.273
0.0199045 -0.030756272 1.2550001
0.023287289 -0.030682474 1.2520001
0.026952295 -0.030951722 1.263
0.03142393 -0.031980615 1.3050001
-0.05840404 -0.035823524 1.3150001
-0.053260725 -0.034816343 1.2780001
-0.04952687 -0.034653611 1.2720001
-0.046585817 -0.035062954 1.2870001
-0.044198103 -0.035989903 1.3210001
-0.041101705 -0.036453668 1.3380001
-0.037492301 -0.03650872 1.34
-0.033695102 -0.036373001 1.335
-0.029902657 -0.036209982 1.3290001
-0.026162717 -0.03607415 1.3240001
-0.022450063 -0.035938267 1.319
-0.018836113 -0.035938561 1.319
-0.015245165 -0.0359933 1.3210001
-0.011616787 -0.035966247 1.3200001
-0.0079635382 -0.035802901 1.314
-0.0043398147 -0.035612263 1.307
-0.00075617433 -0.035503313 1.3030001
0.0028055485 -0.035394304 1.299
0.0063600373 -0.03536699 1.2980001
0.0098937405 -0.035285134 1.2950001
0.013265639 -0.034821767 1.2780001
0.016504956 -0.034276608 1.258
0.019856649 -0.034112871 1.2520001
0.023379972 -0.034248795 1.2570001
0.027229343 -0.034766112 1.276
0.031640217 -0.035801038 1.314
0.035964165 -0.036536191 1.3410001
0.039667368 -0.036562894 1.342
0.043408182 -0.036616791 1.3440001
0.047124732 -0.03664339 1.345
0.050922107 -0.036724426 1.348
-0.059913211 -0.040444866 1.3490001
-0.053093228 -0.038197119 1.274
-0.049097836 -0.037808146 1.261
-0.045644015 -0.037808888 1.261
-0.042591471 -0.03816938 1.273
-0.039872356 -0.038919631 1.2980001
-0.036876205 -0.039519925 1.3180001
-0.033492684 -0.03979034 1.327
-0.029812209 -0.039730869 1.325
-0.026063522 -0.039551392 1.319
-0.022415685 -0.039491802 1.317
-0.01885011 -0.039582085 1.3200001
-0.015302638 -0.039762277 1.3260001
-0.011704617 -0.039882436 1.33
-0.0080482652 -0.039822619 1.3280001
-0.0043829144 -0.039582822 1.3200001
-0.00076022511 -0.039282992 1.3100001
0.0028141455 -0.039073069 1.3030001
0.0063648415 -0.038953044 1.299
0.0098171914 -0.038533103 1.2850001
0.013120121 -0.037903201 1.2640001
0.016425991 -0.037543129 1.2520001
0.019872207 -0.037572823 1.253
0.023509817 -0.037902333 1.2640001
0.027527686 -0.038681563 1.2900001
0.031736061 -0.039520692 1.3180001
0.035588164 -0.039790027 1.327
0.039223403 -0.039789438 1.327
0.042890776 -0.039818779 1.3280001
0.04656345 -0.039848067 1.3290001
0.050165836 -0.039817322 1.3280001
0.053681504 -0.039726563 1.325
0.057353534 -0.03975568 1.3260001
0.061398719 -0.040024586 1.335
-0.049369577 -0.041491251 1.268
-0.045570869 -0.041197564 1.2590001
-0.042122379 -0.041198313 1.2590001
-0.038950164 -0.041493509 1.268
-0.036064222 -0.042181358 1.289
-0.033012591 -0.042803712 1.3080001
-0.029631723 -0.04309877 1.317
-0.025984054 -0.043033797 1.3150001
-0.022381276 -0.043034215 1.3150001
-0.018849801 -0.043198194 1.3200001
-0.015348546 -0.043525752 1.33
-0.011818829 -0.043951426 1.3430001
-0.0082117599 -0.044344313 1.355
-0.0044890926 -0.044246249 1.3520001
-0.00077239925 -0.043559033 1.3310001
0.0028400151 -0.043035388 1.3150001
0.0063647367 -0.042511687 1.299
0.009740633 -0.041726116 1.2750001
0.013068005 -0.041202296 1.2590001
0.01643884 -0.04100569 1.253
0.019967038 -0.041201733 1.2590001
0.023714021 -0.041724965 1.2750001
0.027740624 -0.042542655 1.3000001
0.031735539 -0.043131191 1.3180001
0.035587579 -0.043425135 1.327
0.039370544 -0.043588113 1.332
0.043051556 -0.043620136 1.3330001
0.046562683 -0.043488476 1.3290001
0.050013922 -0.043324042 1.3240001
0.053397037 -0.043126829 1.3180001
0.056876816 -0.043027729 1.3150001
0.060523901 -0.043059453 1.3160001
0.064809673 -0.043516457 1.33
-0.050458863 -0.0459572 1.296
-0.045823425 -0.044894256 1.266
-0.042021263 -0.04454045 1.256
-0.038519431 -0.044470269 1.2540001
-0.035336155 -0.044790119 1.263
-0.032355797 -0.045464553 1.2820001
-0.029316207 -0.046209872 1.3030001
-0.025904553 -0.046494104 1.3110001
-0.022380877 -0.04663641 1.3150001
-0.018863745 -0.046849586 1.3210001
-0.015313652 -0.047062695 1.327
-0.011748215 -0.04734667 1.335
-0.0081570717 -0.04773698 1.3460001
-0.0044890125 -0.047949895 1.3520001
-0.00077702786 -0.047488883 1.3390001
0.0028442836 -0.046708617 1.317
0.0063058268 -0.045644548 1.2870001
0.0096564237 -0.044828691 1.2640001
0.013036634 -0.044544749 1.256
0.016491022 -0.044579942 1.2570001
0.020125274 -0.045005187 1.2690001
0.023899587 -0.045572221 1.2850001
0.02782548 -0.04624556 1.304
0.031638656 -0.046599649 1.314
0.035667401 -0.047166448 1.33
0.039754085 -0.047697697 1.345
0.043599818 -0.047874235 1.35
0.047192488 -0.047767017 1.3470001
0.050579641 -0.04748242 1.3390001
0.053760704 -0.047055922 1.327
0.056919061 -0.046664849 1.3160001
0.060246885 -0.046451014 1.3100001
0.064028874 -0.046591703 1.314
0.068501569 -0.04719327 1.3310001
-0.052910712 -0.051913321 1.3590001
-0.046691224 -0.049278509 1.2900001
-0.042321559 -0.048324376 1.2650001
-0.038580127 -0.04798137 1.256
-0.035139631 -0.0479821 1.256
-0.031875651 -0.048250187 1.263
-0.028820677 -0.048938457 1.281
-0.025666945 -0.049626656 1.299
-0.022312367 -0.050085589 1.3110001
-0.018749144 -0.050162412 1.3130001
-0.0150941 -0.049971726 1.3080001
-0.011475188 -0.049819168 1.304
-0.007884209 -0.049704749 1.3010001
-0.0043229149 -0.049743079 1.302
-0.00075612223 -0.049781334 1.3030001
0.0027923977 -0.049399264 1.2930001
0.0062371115 -0.048635066 1.273
0.0096256798 -0.04813825 1.2600001
0.0130779 -0.048138019 1.2600001
0.016621895 -0.048405148 1.2670001
0.020315189 -0.048939645 1.281
0.024029315 -0.049359445 1.2920001
0.027739592 -0.049664557 1.3000001
0.031517662 -0.050007798 1.309
0.035505813 -0.05058017 1.3240001
0.039901104 -0.051572673 1.35
0.044180304 -0.052259464 1.368
0.051674102 -0.052257556 1.368
0.054650944 -0.051530711 1.3490001
0.057350487 -0.050651032 1.3260001
0.060245734 -0.050038703 1.3100001
0.063637838 -0.049884688 1.3060001
0.067676812 -0.050227158 1.3150001
0.072415233 -0.051027875 1.3360001
0.077325255 -0.051866669 1.358
-0.048427578 -0.054776557 1.3380001
-0.04298979 -0.052607741 1.2850001
-0.038855776 -0.051789809 1.2650001
-0.035194859 -0.051504008 1.258
-0.03172357 -0.051463783 1.2570001
-0.028415112 -0.051710073 1.263
-0.025271244 -0.052365731 1.279
-0.021988545 -0.052898493 1.2920001
-0.01840605 -0.052776095 1.289
-0.014747599 -0.052326079 1.2780001
-0.011166957 -0.051957853 1.2690001
-0.0076658865 -0.051794287 1.2650001
-0.0041999803 -0.051794413 1.2650001
-0.00073579664 -0.051917292 1.268
0.0027383503 -0.051917274 1.268
0.0061830883 -0.051671512 1.2620001
0.0096254805 -0.051589455 1.2600001
0.013139903 -0.051834874 1.266
0.016726501 -0.052203048 1.2750001
0.020362346 -0.05257114 1.284
0.023973022 -0.052775379 1.289
0.027632331 -0.053020488 1.2950001
0.031348467 -0.053306449 1.302
0.035129648 -0.053633273 1.3100001
0.039486498 -0.054696947 1.3360001
0.057911556 -0.054814585 1.3390001
0.060428448 -0.053789914 1.314
0.063636541 -0.053461127 1.3060001
0.067263722 -0.053500678 1.307
0.071438119 -0.053949483 1.3180001
0.076071016 -0.054684713 1.3360001
-0.044193201 -0.057699282 1.3210001
-0.039684232 -0.056433547 1.2920001
-0.035585754 -0.055560812 1.2720001
-0.031849056 -0.055124775 1.2620001
-0.02836949 -0.055081781 1.261
-0.025013829 -0.055300795 1.266
-0.021630667 -0.055519734 1.271
-0.018062947 -0.055258095 1.2650001
-0.014504947 -0.054909009 1.2570001
-0.011017118 -0.05469089 1.2520001
-0.0075748181 -0.054603733 1.25
-0.0041500856 -0.054603867 1.25
-0.0007264961 -0.054691289 1.2520001
0.0027102157 -0.054822318 1.2550001
0.0061633536 -0.054953262 1.258
0.009655823 -0.055215184 1.2640001
0.013222642 -0.055651747 1.274
0.016831079 -0.056044552 1.2830001
0.020361893 -0.056087803 1.284
0.023916699 -0.056174662 1.286
0.027546369 -0.05639248 1.291
0.031203317 -0.056610219 1.296
0.034833893 -0.056740511 1.299
0.03895364 -0.057569593 1.3180001
0.043661721 -0.059053745 1.3520001
0.058991507 -0.059573218 1.3640001
0.061024968 -0.057955895 1.327
0.064073682 -0.057430401 1.3150001
0.067365177 -0.057166882 1.309
0.071002953 -0.057209 1.3100001
0.075215295 -0.057687744 1.3210001
-0.044760875 -0.062105831 1.3380001
-0.04035902 -0.060992833 1.314
-0.036228355 -0.060111817 1.2950001
-0.032226853 -0.059277106 1.2770001
-0.028503807 -0.058813654 1.2670001
-0.024934212 -0.058582194 1.2620001
-0.021408921 -0.05839707 1.258
-0.01786262 -0.058072608 1.251
-0.014377673 -0.057840887 1.2460001
-0.010937663 -0.057701934 1.243
-0.0075322227 -0.057702161 1.243
-0.0041300678 -0.057748716 1.2440001
-0.00072299747 -0.057841625 1.2460001
0.0026993542 -0.058027282 1.25
0.006148512 -0.05825929 1.2550001
0.0096632345 -0.058723312 1.2650001
0.013263846 -0.059326518 1.2780001
0.016870037 -0.059697516 1.286
0.020345557 -0.059557807 1.2830001
0.023860347 -0.059557278 1.2830001
0.027481714 -0.059788749 1.2880001
0.03110628 -0.05997372 1.2920001
0.034699 -0.060065761 1.294
0.03871629 -0.060807575 1.3100001
0.043305464 -0.062245529 1.3410001
0.062173203 -0.062749773 1.3520001
0.064949222 -0.061866418 1.3330001
0.067826778 -0.061168674 1.3180001
0.071001314 -0.060795739 1.3100001
0.074473381 -0.060701191 1.3080001
-0.044826671 -0.065867893 1.34
-0.04063445 -0.065033332 1.3230001
-0.036870878 -0.064788535 1.3180001
-0.032831714 -0.063953765 1.3010001
-0.028840544 -0.06302055 1.2820001
-0.024973102 -0.062136389 1.2640001
-0.021340318 -0.0616454 1.2540001
-0.017790783 -0.06125262 1.2460001
-0.014342699 -0.061105553 1.243
-0.010928593 -0.061056722 1.2420001
-0.0075199148 -0.061007794 1.2410001
-0.0041266452 -0.061106265 1.243
-0.00072181894 -0.061155483 1.2440001
0.0026949681 -0.061352104 1.248
0.0061385594 -0.061597783 1.253
0.0096324384 -0.061990868 1.261
0.01323238 -0.062678821 1.2750001
0.016869616 -0.063219182 1.286
0.020392623 -0.063218713 1.286
0.023859754 -0.063070677 1.2830001
0.027459696 -0.06326665 1.2870001
0.031105509 -0.063511692 1.2920001
0.03469814 -0.063609168 1.294
0.038685776 -0.064345576 1.309
0.068905793 -0.065809265 1.3390001
0.071433164 -0.064775392 1.3180001
0.074471563 -0.064282104 1.3080001
-0.044925854 -0.069692515 1.3430001
-0.040756237 -0.06886337 1.327
-0.037205603 -0.0690201 1.33
-0.033234611 -0.068346411 1.317
-0.029042251 -0.066997953 1.291
-0.024992205 -0.065649383 1.2650001
-0.021305721 -0.064975344 1.2520001
-0.017761759 -0.064560689 1.2440001
-0.014330786 -0.064457327 1.2420001
-0.010919505 -0.064405769 1.2410001
-0.0075136567 -0.064354114 1.24
-0.0041198968 -0.064406179 1.2410001
-0.00072121964 -0.064510033 1.243
0.0026927378 -0.064717606 1.2470001
0.0061286008 -0.064925082 1.251
0.009609269 -0.065288149 1.258
0.013200898 -0.066014431 1.2720001
0.016829822 -0.066584907 1.2830001
0.020392084 -0.066740088 1.286
0.023821931 -0.066480003 1.281
0.0274163 -0.066686906 1.2850001
0.03105654 -0.06694559 1.2900001
0.03467042 -0.067100406 1.2930001
0.038596109 -0.06777405 1.3060001
0.072515242 -0.069421194 1.3380001
0.07498204 -0.068329684 1.317
-0.045091871 -0.073642537 1.348
-0.040908672 -0.072769649 1.332
-0.037316471 -0.07288003 1.3340001
-0.033284161 -0.072061524 1.319
-0.029063946 -0.0705873 1.2920001
-0.025031026 -0.069222204 1.2670001
-0.021339167 -0.068512604 1.2540001
-0.017804103 -0.068130709 1.2470001
-0.014353463 -0.067967258 1.2440001
-0.010928002 -0.067858353 1.2420001
-0.0075195087 -0.067803971 1.2410001
-0.0041231024 -0.06785877 1.2420001
-0.00072178 -0.067968115 1.2440001
0.0026926636 -0.068131998 1.2470001
0.0061284304 -0.068350412 1.251
0.0096013648 -0.068678014 1.2570001
0.013169399 -0.06933333 1.2690001
0.016803119 -0.069988526 1.281
0.020391522 -0.07026118 1.286
0.023821272 -0.069987379 1.281
0.027436875 -0.070259824 1.286
0.031055687 -0.070477538 1.2900001
0.03469627 -0.070695139 1.294
0.038535938 -0.071240433 1.304
-0.04492332 -0.077045955 1.3430001
-0.04078465 -0.076186694 1.3280001
-0.037147556 -0.076187842 1.3280001
-0.033157028 -0.07538569 1.314
-0.029040607 -0.074067071 1.291
-0.0250303 -0.072690934 1.2670001
-0.021338545 -0.071945779 1.2540001
-0.017803583 -0.071544752 1.2470001
-0.014353047 -0.071373105 1.2440001
-0.010927685 -0.071258739 1.2420001
-0.0075253495 -0.071259014 1.2420001
-0.004126302 -0.071316555 1.243
-0.00072233914 -0.071431376 1.245
0.0026947444 -0.071603477 1.248
0.0061331512 -0.071832843 1.2520001
0.0096010864 -0.072119482 1.2570001
0.013137884 -0.072635509 1.266
0.016750166 -0.073266186 1.2770001
0.020327507 -0.073552497 1.2820001
0.023820583 -0.073494464 1.281
0.02741475 -0.073723197 1.2850001
0.031054785 -0.074009195 1.2900001
0.034695268 -0.074237689 1.294
-0.044554021 -0.080061033 1.332
-0.0404456 -0.079160757 1.317
-0.036810771 -0.079101846 1.3160001
-0.032979395 -0.078561947 1.307
-0.028994737 -0.077480942 1.289
-0.025069052 -0.076279595 1.2690001
-0.021388946 -0.07555899 1.2570001
-0.017845871 -0.075138822 1.25
-0.014375685 -0.074898884 1.2460001
-0.010944948 -0.074779049 1.2440001
-0.0075372388 -0.074779347 1.2440001
-0.0041294964 -0.074779525 1.2440001
-0.0007228973 -0.074899815 1.2460001
0.002694662 -0.075020015 1.248
0.0061329645 -0.075260334 1.2520001
0.0096007949 -0.075560652 1.2570001
0.013116729 -0.075981066 1.2640001
0.016736539 -0.076701939 1.276
0.020342745 -0.077122152 1.2830001
0.023894237 -0.077241682 1.2850001
0.027477918 -0.077421211 1.2880001
0.031101989 -0.077660739 1.2920001
0.034747839 -0.077900149 1.296
-0.040290773 -0.082451329 1.312
-0.036697719 -0.082452573 1.312
-0.032852188 -0.081825249 1.302
-0.028948832 -0.080883548 1.2870001
-0.025068253 -0.079753183 1.2690001
-0.021388268 -0.078999765 1.2570001
-0.017859582 -0.07862331 1.251
-0.014386768 -0.078372449 1.2470001
-0.010944599 -0.078184307 1.2440001
-0.0075309398 -0.078121752 1.243
-0.0041227262 -0.078059092 1.2420001
-0.00072229421 -0.078247719 1.245
0.0026924175 -0.078373387 1.2470001
0.0061327699 -0.078687496 1.2520001
0.0096004894 -0.079001486 1.2570001
0.013126691 -0.079503916 1.2650001
0.016749125 -0.080257617 1.2770001
0.020389661 -0.080822639 1.286
0.023967857 -0.081010468 1.289
0.027498379 -0.081009626 1.289
0.031076929 -0.081134379 1.291
0.034746736 -0.081447534 1.296
-0.040504403 -0.086501174 1.319
-0.036780417 -0.08624015 1.3150001
-0.032901566 -0.08551991 1.304
-0.028925383 -0.084340453 1.286
-0.025106933 -0.08335761 1.271
-0.021455616 -0.082702547 1.261
-0.017916095 -0.082309708 1.2550001
-0.014420899 -0.081982322 1.25
-0.01097063 -0.081785999 1.2470001
-0.0075367494 -0.081589557 1.2440001
-0.0041259085 -0.081524163 1.243
-0.00072285038 -0.081721008 1.2460001
0.0026966464 -0.081917726 1.2490001
0.006142363 -0.082245514 1.2540001
0.0096307192 -0.08270435 1.261
0.01316776 -0.083228655 1.2690001
0.016814148 -0.084080763 1.2820001
0.020452408 -0.084604815 1.2900001
0.02406003 -0.084866405 1.294
0.027561469 -0.084734365 1.2920001
0.031099975 -0.084733382 1.2920001
0.034799214 -0.085125759 1.2980001
-0.040994331 -0.091203816 1.335
-0.037058845 -0.090521999 1.325
-0.033051822 -0.089498453 1.3100001
-0.029036846 -0.088201448 1.291
-0.025204834 -0.087177597 1.276
-0.021539951 -0.086495206 1.266
-0.017986855 -0.086085968 1.2600001
-0.014478086 -0.085744932 1.2550001
-0.01100544 -0.085472077 1.251
-0.0075607225 -0.085267439 1.248
-0.0041390434 -0.085199326 1.2470001
-0.00072514586 -0.085404366 1.25
0.0027095072 -0.08574596 1.2550001
0.0061764377 -0.08615575 1.261
0.0096762106 -0.086565398 1.2670001
0.013208811 -0.086974934 1.273
0.016800452 -0.087520994 1.281
0.020435849 -0.088066921 1.289
0.024096387 -0.088544376 1.296
0.027603181 -0.088406831 1.294
0.031098908 -0.088269174 1.2920001
0.034851637 -0.088814571 1.3000001
-0.037393142 -0.095000327 1.337
-0.033277705 -0.093722619 1.319
-0.02921574 -0.092302635 1.299
-0.025401458 -0.091379888 1.286
-0.021709319 -0.090670168 1.276
-0.018128959 -0.090244547 1.2700001
-0.014592925 -0.089889832 1.2650001
-0.011093017 -0.089606062 1.261
-0.0076210317 -0.089393228 1.258
-0.0041754046 -0.089393444 1.258
-0.00073208119 -0.089677788 1.2620001
0.0027374756 -0.090104096 1.268
0.0062251948 -0.090317115 1.271
0.0097216843 -0.090458937 1.273
0.013187586 -0.0903164 1.271
0.016694935 -0.090457976 1.273
0.020324143 -0.091096833 1.2820001
0.024058342 -0.091948725 1.294
0.02764486 -0.092089899 1.296
0.031121867 -0.091875665 1.2930001
0.034984436 -0.092727132 1.3050001
-0.037279893 -0.098363288 1.3330001
-0.032998964 -0.09651982 1.3080001
-0.029034736 -0.095266514 1.291
-0.025341263 -0.094677202 1.2830001
-0.021776566 -0.09445671 1.2800001
-0.018242482 -0.094309874 1.2780001
-0.014730809 -0.094236694 1.2770001
-0.011206962 -0.094015799 1.274
-0.0076995008 -0.093794771 1.271
-0.0042183967 -0.093794987 1.271
-0.00073959492 -0.094090275 1.2750001
0.0027589623 -0.094311625 1.2780001
0.0062494525 -0.094163865 1.276
0.0097136889 -0.093868382 1.2720001
0.013145596 -0.093498968 1.2670001
0.016602518 -0.093424611 1.266
0.020196566 -0.094014265 1.274
0.023964496 -0.095120355 1.289
0.027622508 -0.095562145 1.2950001
0.031120719 -0.095413454 1.2930001
0.035036758 -0.096445292 1.307
-0.036299665 -0.099331625 1.2980001
-0.032392237 -0.09826158 1.284
-0.028696287 -0.097650543 1.276
-0.025182284 -0.097575068 1.2750001
-0.02170768 -0.09765251 1.276
-0.018241782 -0.097806364 1.2780001
-0.014776384 -0.098036587 1.281
-0.011276903 -0.098113626 1.2820001
-0.0077597802 -0.098037466 1.281
-0.0042481036 -0.097961165 1.2800001
-0.00074304681 -0.098037794 1.281
0.0027631735 -0.097961232 1.2800001
0.0062443148 -0.097578391 1.2750001
0.0096904058 -0.097118884 1.2690001
0.013113967 -0.09673579 1.2640001
0.01653631 -0.096505605 1.261
0.02011653 -0.097117133 1.2690001
0.023833441 -0.098111182 1.2820001
0.027557461 -0.09887547 1.2920001
0.031095454 -0.098874323 1.2920001
0.035142642 -0.10032707 1.3110001
-0.035571147 -0.10082144 1.2720001
-0.031962104 -0.10042647 1.2670001
-0.028492756 -0.10042768 1.2670001
-0.025082536 -0.10066655 1.2700001
-0.021655783 -0.10090529 1.273
-0.01821251 -0.1011439 1.276
-0.01475273 -0.10138237 1.279
-0.011258863 -0.10146216 1.2800001
-0.0077534155 -0.10146254 1.2800001
-0.004241298 -0.10130425 1.2780001
-0.00074127724 -0.10130435 1.2780001
0.0027479534 -0.10090797 1.273
0.0062244777 -0.10074925 1.271
0.0096671134 -0.10035259 1.266
0.013092697 -0.10003506 1.2620001
0.016496316 -0.099717394 1.258
0.020036476 -0.10019226 1.2640001
0.023776725 -0.10138036 1.279
0.02753504 -0.10233051 1.291
0.031166427 -0.10264639 1.2950001
0.035194859 -0.10407179 1.3130001
-0.039113715 -0.10446296 1.274
-0.035457838 -0.10397252 1.268
-0.0319608 -0.10389192 1.2670001
-0.028536564 -0.10405716 1.2690001
-0.025160506 -0.10446828 1.274
-0.021722941 -0.10471526 1.2770001
-0.01824031 -0.1047981 1.2780001
-0.014740591 -0.10479879 1.2780001
-0.011223218 -0.10463531 1.276
-0.0077288691 -0.10463572 1.276
-0.0042245309 -0.10438995 1.273
-0.00073834672 -0.10439004 1.273
0.0027435238 -0.104226 1.271
0.0062291198 -0.10430783 1.2720001
0.0096972603 -0.10414349 1.2700001
0.013102533 -0.10356898 1.263
0.016469415 -0.10299435 1.256
0.019972254 -0.10332162 1.2600001
0.023757165 -0.10479673 1.2780001
0.02766188 -0.10635366 1.2970001
0.031526137 -0.10741841 1.3100001
0.035809912 -0.10954897 1.3360001
-0.039234877 -0.10828598 1.2780001
-0.035652086 -0.10803338 1.2750001
-0.032211699 -0.10820428 1.2770001
-0.028827686 -0.10862925 1.2820001
-0.025435923 -0.10913883 1.2880001
-0.021943158 -0.10930932 1.2900001
-0.018353714 -0.10897122 1.286
-0.014763035 -0.10846353 1.2800001
-0.01121395 -0.10804039 1.2750001
-0.0077103716 -0.10787132 1.273
-0.0042177155 -0.1077021 1.271
-0.00073773559 -0.10778695 1.2720001
0.0027477245 -0.10787164 1.273
0.0062484434 -0.10812566 1.276
0.0097350264 -0.10804058 1.2750001
0.013122729 -0.10719272 1.2650001
0.016455609 -0.10634471 1.2550001
0.019908005 -0.10642866 1.256
0.02373757 -0.10820718 1.2770001
0.027852656 -0.1106634 1.3060001
0.032150496 -0.11320414 1.3360001
-0.039693657 -0.11309253 1.2930001
-0.036153842 -0.1130942 1.2930001
-0.032689545 -0.1133581 1.296
-0.029321117 -0.11405922 1.304
-0.025869261 -0.11458525 1.3100001
-0.022197345 -0.11414896 1.3050001
-0.018481357 -0.11327515 1.2950001
-0.014820059 -0.11240117 1.2850001
-0.011257436 -0.11196439 1.2800001
-0.0077282055 -0.1116149 1.276
-0.0042308047 -0.1115277 1.2750001
-0.00073944335 -0.11152782 1.2750001
0.0027540796 -0.11161523 1.276
0.0062628617 -0.11187746 1.279
0.0097727785 -0.11196458 1.2800001
0.013174024 -0.11108936 1.2700001
0.016481116 -0.10995157 1.2570001
0.019891292 -0.10977582 1.2550001
0.02368078 -0.11143681 1.274
0.028000724 -0.11484697 1.3130001
-0.026401266 -0.12060255 1.337
-0.022417467 -0.11888979 1.3180001
-0.018537614 -0.11717682 1.299
-0.014842459 -0.1160951 1.2870001
-0.01127452 -0.11564467 1.2820001
-0.0077460282 -0.11537447 1.279
-0.0042372518 -0.11519433 1.2770001
-0.00073999004 -0.11510424 1.276
0.0027561148 -0.1151944 1.2770001
0.0062674778 -0.11546482 1.2800001
0.0097876089 -0.11564486 1.2820001
0.013256417 -0.11528352 1.2780001
0.016611487 -0.11429057 1.2670001
0.020001344 -0.11383872 1.2620001
0.023679718 -0.11492018 1.274
0.027850201 -0.11780554 1.3060001
-0.02246746 -0.12277184 1.3210001
-0.018608112 -0.12119282 1.304
-0.01491097 -0.12017127 1.2930001
-0.01133556 -0.11980012 1.289
-0.0077759521 -0.11933586 1.284
-0.0042503285 -0.11905732 1.281
-0.00074227568 -0.1189645 1.2800001
0.0027624627 -0.11896445 1.2800001
0.006272085 -0.11905718 1.281
0.0098024271 -0.11933561 1.284
0.01331804 -0.11933509 1.284
0.016781157 -0.11896263 1.2800001
0.020222301 -0.11859 1.276
0.02382732 -0.11914662 1.2820001
0.027784953 -0.1210971 1.3030001
0.032507114 -0.12555666 1.3510001
-0.022398369 -0.12600008 1.317
-0.018592965 -0.12466165 1.3030001
-0.01493333 -0.12389707 1.2950001
-0.011361405 -0.12361066 1.2920001
-0.0077937529 -0.12313276 1.2870001
-0.0042600813 -0.12284601 1.284
-0.00074340036 -0.12265479 1.2820001
0.0027666483 -0.12265474 1.2820001
0.0062864767 -0.12284587 1.284
0.0098172314 -0.12303683 1.286
0.013369271 -0.1233233 1.289
0.016898351 -0.12332258 1.289
0.020395666 -0.12313034 1.2870001
0.023956291 -0.12332063 1.289
0.027762318 -0.12456311 1.302
0.032000314 -0.12724045 1.33
-0.022346269 -0.12930438 1.314
-0.018592065 -0.12822293 1.3030001
-0.014967199 -0.12773171 1.2980001
-0.011387236 -0.12743714 1.2950001
-0.0078175971 -0.12704398 1.291
-0.0042764628 -0.12684745 1.289
-0.00074626354 -0.12665077 1.2870001
0.0027773038 -0.12665072 1.2870001
0.0063008592 -0.12665048 1.2870001
0.0098320246 -0.12674852 1.2880001
0.013378995 -0.12694477 1.2900001
0.016936859 -0.12714082 1.2920001
0.020473914 -0.12713991 1.2920001
0.024048056 -0.12733562 1.294
0.027803622 -0.12831841 1.304
0.031902533 -0.13048181 1.3260001
-0.022328159 -0.13279405 1.3130001
-0.018576875 -0.13168254 1.302
-0.014954926 -0.13117771 1.2970001
-0.01138667 -0.13097608 1.2950001
-0.0078293197 -0.13077429 1.2930001
-0.0042895204 -0.13077457 1.2930001
-0.00074912561 -0.13067357 1.2920001
0.0027857972 -0.13057236 1.291
0.0063201287 -0.13057216 1.291
0.0098544341 -0.13057174 1.291
0.013409443 -0.13077344 1.2930001
0.016949128 -0.13077268 1.2930001
0.020472901 -0.13067061 1.2920001
0.024046864 -0.13087176 1.294
0.027844889 -0.13208412 1.3060001
0.032021247 -0.13461101 1.3310001
-0.022412047 -0.13690096 1.3180001
-0.018633001 -0.13565557 1.3060001
-0.015000287 -0.13513708 1.3010001
-0.01142126 -0.13493 1.299
-0.0078652501 -0.13493049 1.299
-0.0043191588 -0.13524243 1.302
-0.00075546524 -0.13534644 1.3030001
0.0028137064 -0.13545024 1.304
0.006373656 -0.13524228 1.302
0.009914997 -0.13493024 1.299
0.013450243 -0.13472189 1.2970001
0.01698759 -0.13461722 1.296
0.020551085 -0.13472013 1.2970001
0.024175722 -0.13513449 1.3010001
0.028056672 -0.13669118 1.3160001
-0.022563916 -0.14146107 1.327
-0.018731898 -0.13996972 1.3130001
-0.015045623 -0.13911778 1.3050001
-0.011464627 -0.13901187 1.304
-0.007919332 -0.13943879 1.3080001
-0.0043653743 -0.14029197 1.3160001
-0.0007676009 -0.14114495 1.3240001
0.0028588709 -0.14125149 1.325
0.0064663305 -0.14082482 1.3210001
0.010028967 -0.14007816 1.314
0.013573981 -0.13954452 1.309
0.017130885 -0.13933049 1.307
0.020692617 -0.13922291 1.3060001
0.024378862 -0.13986133 1.312
0.02846027 -0.14231177 1.335
-0.023038797 -0.14814714 1.355
-0.018944889 -0.14519624 1.3280001
-0.015206224 -0.14421315 1.319
-0.011595887 -0.14421386 1.319
-0.0080399951 -0.14519842 1.3280001
-0.0044845534 -0.14782283 1.3520001
0.013967289 -0.14727488 1.3470001
0.017392103 -0.14508732 1.327
0.020897485 -0.14421162 1.319
0.024693439 -0.14530376 1.3290001
-0.019286223 -0.15151276 1.3520001
-0.015332207 -0.14904825 1.33
-0.011718334 -0.14938521 1.3330001
-0.0082453908 -0.15263569 1.3620001
0.021355785 -0.15106384 1.348
0.025045112 -0.15106259 1.348
-0.015573432 -0.15509085 1.3510001
-0.011911073 -0.15555079 1.355
