# .PCD v0.7 - Point Cloud Data file format
VERSION 0.7
FIELDS x y z
SIZE 4 4 4
TYPE F F F
COUNT 1 1 1
WIDTH 85
HEIGHT 1
VIEWPOINT 0 0 0 1 0 0 0
POINTS 85
DATA ascii
0.0015489943 -0.093134098 1.3201903
0.0057724435 -0.10412367 1.3115114
-0.0024351347 -0.10505196 1.3125784
0.0030196253 -0.097036757 1.3135687
-0.0033221152 -0.097109377 1.3146873
0.00096547976 -0.0899885 1.3087112
-0.0050839838 -0.090772673 1.3071586
0.01337778 -0.11900309 1.3056427
0.012219002 -0.1187975 1.3064606
-0.0074563939 -0.12120442 1.3086593
0.014242981 -0.11368086 1.3059161
0.0081828609 -0.11423501 1.3074784
-0.0061912108 -0.11688713 1.3092893
-0.01318978 -0.11388908 1.3075765
0.015215721 -0.10077536 1.3018084
0.010710191 -0.10353795 1.3095134
-0.010388194 -0.10289815 1.3098509
-0.015218059 -0.10478849 1.3048851
0.011700397 -0.09020558 1.2960436
0.0040527377 -0.086469397 1.3016083
-0.011085348 -0.089800663 1.3020225
-0.016325055 -0.095752232 1.2983685
0.0086425934 -0.080211394 1.2894405
1.1514872e-005 -0.078373998 1.2969102
-0.011329534 -0.080520913 1.2959338
-0.017366068 -0.084781513 1.2908573
0.0057129916 -0.071083136 1.2849717
-0.0016306546 -0.068929121 1.2889669
-0.012853386 -0.071326554 1.2889961
-0.0038389917 -0.064342491 1.281425
-0.011864433 -0.065647721 1.2825029
0.013778077 -0.1214803 1.3003994
0.012144925 -0.1201766 1.3036631
-0.0076106358 -0.12217381 1.3067291
0.014537679 -0.11966089 1.2980956
0.0072211456 -0.11804151 1.2994326
-0.0080138501 -0.12232377 1.3016593
-0.013917396 -0.11840504 1.3013315
0.01445855 -0.10610173 1.2903118
-0.013086917 -0.11059666 1.2906095
-0.016353695 -0.10912634 1.2954108
0.011968952 -0.095913514 1.2837498
-0.015299207 -0.10203116 1.2861359
-0.017841743 -0.098136492 1.2877617
0.010138983 -0.084390603 1.2799212
-0.017195316 -0.09102568 1.280111
-0.019127646 -0.088519499 1.2837986
0.0075576659 -0.073582388 1.2758691
-0.019316623 -0.073252998 1.2787694
-0.020086313 -0.078460731 1.2797695
0.013209065 -0.058156233 1.267068
0.0060909856 -0.064484321 1.2708237
-0.0019522328 -0.066028081 1.2723391
-0.0168449 -0.068354413 1.2744228
-0.025103586 -0.065859482 1.2738357
0.01431589 -0.051504225 1.2655636
0.0097503606 -0.054889321 1.2665876
-0.031558655 -0.05790766 1.2717323
-0.035160579 -0.055277653 1.2714487
0.0039320085 -0.11586725 1.2898576
-0.003587028 -0.11671773 1.2908347
0.010145381 -0.11021943 1.2874488
0.0022631455 -0.11042403 1.2852455
-0.007118905 -0.11036039 1.2861593
0.01068479 -0.10173468 1.2754625
0.0029916987 -0.099434599 1.277653
-0.010684686 -0.10081705 1.2804549
-0.023862725 -0.10158443 1.2770709
0.0078517552 -0.088646054 1.2733626
0.00034324452 -0.092471041 1.2720867
-0.012656206 -0.092961289 1.2742656
-0.024065806 -0.097594053 1.2740067
0.0056752767 -0.079253554 1.2687832
-0.0018030684 -0.081837147 1.2645845
-0.014695847 -0.082542747 1.2679605
-0.01992183 -0.083587885 1.2748244
0.0033506919 -0.072015636 1.2679847
-0.0037474986 -0.071780346 1.265373
-0.0133883 -0.072983332 1.2670176
0.0099679753 -0.10547795 1.2703077
-0.0050351974 -0.089495495 1.2645718
-0.0084279012 -0.089855701 1.2652128
-0.025382364 -0.09936168 1.2712911
-0.00584854 -0.087398499 1.2634752
-0.008599041 -0.088280305 1.2642756
