# .PCD v0.7 - Point Cloud Data file format
VERSION 0.7
FIELDS x y z
SIZE 4 4 4
TYPE F F F
COUNT 1 1 1
WIDTH 726
HEIGHT 1
VIEWPOINT 0 0 0 1 0 0 0
POINTS 726
DATA ascii
0.014030937 -0.064517729 1.3034542
0.018884262 -0.060409784 1.3013
0.013051094 -0.059507638 1.3022871
0.0079003312 -0.062481172 1.3016274
0.018035749 -0.056427397 1.2972981
0.011775553 -0.056034207 1.2988694
0.0063864551 -0.05874332 1.2970115
0.011881076 -0.054707937 1.293375
0.017708568 -0.068178423 1.3017784
0.011848519 -0.069283925 1.3019525
0.021951368 -0.065062933 1.2989702
0.0066093374 -0.067956701 1.2994264
0.022955915 -0.061126508 1.2946012
0.003992293 -0.064703867 1.2951634
0.017719118 -0.05720938 1.2890768
0.0092395004 -0.057651438 1.2879874
0.0049968269 -0.060767405 1.2907952
0.018163895 -0.071492143 1.2986299
0.014453758 -0.073027566 1.2968729
0.021852184 -0.06933447 1.2946998
0.014841881 -0.071565226 1.2925951
0.0080116726 -0.071944676 1.2951121
0.023279598 -0.064616777 1.2916338
0.020396864 -0.06549599 1.2877944
0.013553387 -0.065526739 1.2875618
0.0074455142 -0.067939311 1.2881789
0.0047915168 -0.06810417 1.2921827
0.018202502 -0.061083995 1.2847897
0.012394393 -0.062493756 1.2837833
0.0066078082 -0.063980952 1.2850593
0.031820711 -0.077484854 1.2925688
0.026635878 -0.079514749 1.2950222
0.021442888 -0.077962905 1.2948358
0.016125148 -0.078011476 1.2948647
0.011162184 -0.079901889 1.2951421
0.0069100726 -0.083235197 1.2956091
0.0012106225 -0.083259054 1.2934774
0.028506733 -0.073934577 1.2917348
0.02105445 -0.071614414 1.2916042
0.015241014 -0.072942898 1.2906865
0.010511119 -0.073126785 1.291868
0.0046951007 -0.077039309 1.2923166
0.03112302 -0.068450525 1.2851487
0.024592556 -0.066155322 1.2863162
0.018982811 -0.068868212 1.2873968
0.014099805 -0.070294268 1.2865568
0.0092309359 -0.069969259 1.2875519
0.0034483597 -0.070143186 1.2869451
-0.0018542446 -0.074671127 1.2861284
0.029832825 -0.063485764 1.2782261
0.023924625 -0.062228002 1.2804455
0.013855206 -0.06657277 1.284492
0.0023035258 -0.066306092 1.2810884
-0.0028582849 -0.069652982 1.2791967
0.028299138 -0.060847767 1.2725393
0.022858372 -0.059747808 1.2747345
0.01741517 -0.059316851 1.2761239
0.012125427 -0.059654601 1.2767736
0.0070477854 -0.061272912 1.2764312
0.0020645447 -0.063669883 1.2753537
-0.0027186833 -0.066698529 1.2734616
0.021779321 -0.057974562 1.2694836
0.016689908 -0.057662211 1.2707821
0.011652073 -0.057996996 1.2713646
0.0068133622 -0.059524603 1.2710761
0.0021215491 -0.061682887 1.2700673
0.015801782 -0.055230565 1.2655404
0.011066914 -0.055722028 1.2661055
0.0064536296 -0.056994148 1.265818
0.014822245 -0.051948942 1.2601316
0.010257775 -0.052290648 1.2606585
0.0058596451 -0.053639486 1.2603983
0.0095008314 -0.049030356 1.2558823
0.027398679 -0.087987572 1.2964399
0.0093663614 -0.091389224 1.2969757
0.035197336 -0.084325716 1.294421
0.030634694 -0.083944179 1.2954246
0.023796819 -0.085719734 1.2962134
0.017470796 -0.084944516 1.2961407
0.011876149 -0.087968677 1.2965672
0.0048281457 -0.088812381 1.2961912
0.00066804141 -0.090838395 1.2954485
0.037386149 -0.080386981 1.2909101
-0.0030015074 -0.088005915 1.2921093
0.038730495 -0.074714944 1.283941
0.03497969 -0.074296065 1.2882524
-0.0031336807 -0.081485733 1.2893841
-0.0067153573 -0.083286725 1.285293
0.036621038 -0.069942608 1.2798405
-0.0067263432 -0.078118958 1.2811289
0.035016932 -0.065997072 1.2745595
-0.0069737658 -0.073917545 1.2758077
0.033206113 -0.063042425 1.2692553
-0.0066698007 -0.070564114 1.2704409
0.029187188 -0.05973471 1.2659459
-0.004327435 -0.066056542 1.2669425
0.022961969 -0.055881754 1.2634122
-8.764118e-005 -0.06022957 1.2640971
0.021716701 -0.052611507 1.2582772
-0.00041464716 -0.056786157 1.2589347
0.023040799 -0.04977823 1.2527741
0.016275542 -0.048874445 1.2547543
0.0051658023 -0.050394937 1.2555325
-0.00099764019 -0.05351007 1.2541543
0.02013419 -0.046287768 1.2486252
0.013288464 -0.045511723 1.2501779
0.0087617896 -0.04588905 1.2509485
0.0043722317 -0.047193341 1.2504433
-0.0017983988 -0.050424553 1.2492771
0.019695982 -0.043952383 1.2444128
0.012790529 -0.0431851 1.2458596
0.0082023405 -0.04360617 1.2466087
0.0037409049 -0.044892624 1.2461274
-0.0024826452 -0.048135526 1.2450724
0.016994165 -0.041441277 1.2409418
0.012328029 -0.041154191 1.2417871
0.0077037588 -0.041595004 1.2425969
0.0031978954 -0.042876069 1.242059
-0.0010838322 -0.044851705 1.241478
0.016563941 -0.039670914 1.2369518
0.011762831 -0.038825847 1.2362715
0.0070050359 -0.038947131 1.2358807
0.002559917 -0.040562361 1.2365437
-0.0015566386 -0.04308936 1.2374897
0.03609046 -0.095794342 1.2965174
0.004132038 -0.10182209 1.2974691
0.040747307 -0.092475131 1.2938631
0.036502626 -0.091828294 1.2956063
0.031402789 -0.09360975 1.2962178
0.02526921 -0.09308473 1.2948745
0.013111511 -0.095378287 1.2952354
0.0076779649 -0.098085307 1.2969221
0.0022531934 -0.098288126 1.2966261
-0.0015571117 -0.10045484 1.2951212
0.042332385 -0.086454116 1.2900047
0.038521092 -0.085086845 1.2928039
0.018703947 -0.091754384 1.2944061
-0.0046419911 -0.09479291 1.292073
0.041993067 -0.080667913 1.285602
-0.006088499 -0.088793196 1.2889581
-0.0088841505 -0.09120959 1.2851847
0.042231314 -0.076692373 1.2790799
-0.0095288642 -0.086455323 1.280619
0.040628061 -0.072827324 1.2748097
-0.0096894726 -0.082318202 1.276306
0.038913105 -0.069216087 1.269875
-0.0096929297 -0.078384839 1.2713195
0.03703212 -0.066134833 1.2649966
-0.0093451068 -0.074883312 1.2663746
0.034446634 -0.061944462 1.2583685
0.029838994 -0.05785428 1.2598428
-0.0059675463 -0.064608023 1.2609081
-0.0088466108 -0.070111066 1.2596548
0.032098938 -0.056952737 1.2519779
0.028407793 -0.054429628 1.2551651
-0.0061513633 -0.060948253 1.2561934
-0.0088471286 -0.06467659 1.2531945
0.029289588 -0.052740388 1.2493911
-0.0079172999 -0.059758492 1.2504976
0.028520647 -0.04998453 1.244899
-0.0084630363 -0.056960925 1.2459975
0.026108924 -0.046543993 1.2420051
-0.0076387636 -0.05291073 1.2430066
0.025382537 -0.043838412 1.2362993
0.021296855 -0.041688986 1.2379029
-0.0051675625 -0.046680428 1.23869
-0.0082751885 -0.050186709 1.2373006
0.024754774 -0.041479908 1.2313865
0.018402064 -0.038965911 1.2331212
0.011497786 -0.037957821 1.2335178
0.0023325942 -0.039686829 1.23379
-0.003741838 -0.043142408 1.2337799
-0.0088317655 -0.047815464 1.2323852
0.017820824 -0.037780903 1.2284902
0.012350885 -0.037076704 1.2263031
0.0065541528 -0.037538022 1.2296505
0.00080511346 -0.03925392 1.2266474
-0.0038981959 -0.041878022 1.2291362
0.0064130239 -0.037505865 1.2251029
0.037912004 -0.10264481 1.2977803
0.0044360459 -0.10906633 1.2986903
0.038105808 -0.099851765 1.2976543
0.034108579 -0.10021908 1.296663
0.0076681916 -0.10526875 1.2974453
0.0040678214 -0.1063899 1.298653
0.043014519 -0.095505111 1.2921052
0.039641395 -0.095541894 1.2951645
0.030194938 -0.097889975 1.2948589
0.025806677 -0.098120399 1.2925087
0.019774891 -0.097858816 1.2916996
0.014309131 -0.1002899 1.2928482
0.010280656 -0.10164669 1.2954512
0.00066160783 -0.10289492 1.2963223
-0.0026625693 -0.10412101 1.2934631
0.046681263 -0.091546521 1.2875524
0.044007916 -0.089713216 1.2901399
-0.0058071427 -0.099110179 1.2916204
-0.0077733733 -0.10181877 1.2891699
0.047046866 -0.087964334 1.2838999
-0.0096267611 -0.098654166 1.2855854
0.046178497 -0.084049679 1.2793928
-0.010502476 -0.094741113 1.2810781
0.04457885 -0.079972908 1.2743961
-0.010785464 -0.090415739 1.2760426
0.04300908 -0.076578103 1.2697859
-0.010825966 -0.086732842 1.2713859
0.041299284 -0.073218569 1.2648686
-0.010741096 -0.083035067 1.2664158
0.03958413 -0.070137344 1.2601746
-0.010536931 -0.079591759 1.2616644
0.037963506 -0.067238428 1.2558546
-0.010333393 -0.076348446 1.2572902
0.035642318 -0.062186845 1.250013
-0.010348786 -0.070862211 1.25138
0.033929382 -0.057630844 1.2445501
-0.01072751 -0.06605465 1.245877
0.033405982 -0.05509197 1.2408216
-0.011379313 -0.063539274 1.2421538
0.033024643 -0.052912116 1.2371985
0.029563725 -0.048487939 1.2380048
-0.010372341 -0.056021832 1.2391907
-0.012025509 -0.061410204 1.2385372
0.028788902 -0.045733683 1.2326784
-0.010959964 -0.053231835 1.2338598
0.0281091 -0.043616369 1.2284502
-0.011340819 -0.051057316 1.229624
0.023690555 -0.039653976 1.2253498
0.019433059 -0.037892208 1.224176
-0.0056034215 -0.042615116 1.2249199
-0.0088530108 -0.045792408 1.2263178
0.022310091 -0.039741233 1.2197393
0.0186581 -0.038245052 1.2202319
0.011866892 -0.03802114 1.219418
0.0064509232 -0.038670536 1.2189897
0.0012044199 -0.040032431 1.2197354
-0.0049808249 -0.042704344 1.2209337
-0.0078593604 -0.045431867 1.2206368
0.038940575 -0.1058443 1.2949249
0.0048570465 -0.1117811 1.2963516
0.042938318 -0.10511958 1.2926308
0.040014599 -0.10416826 1.2918336
0.03456375 -0.10448337 1.2924811
0.0084828287 -0.10940304 1.2932553
0.0038844645 -0.11163554 1.293038
0.00099691376 -0.11264347 1.2943165
0.046931315 -0.096971795 1.2876706
0.04524387 -0.10059953 1.2882291
0.031119063 -0.10416761 1.2897153
0.027445432 -0.10249355 1.2892598
0.020530405 -0.10244842 1.2879938
0.014191274 -0.10499383 1.2896537
0.011411268 -0.10788441 1.2903026
-0.0031032488 -0.10971934 1.2896658
-0.0060244575 -0.10696012 1.289246
0.048489626 -0.095902942 1.2832798
-0.008113306 -0.10658032 1.2849617
0.048803803 -0.091359615 1.2802316
-0.010234125 -0.10249616 1.2819854
0.047744621 -0.087931402 1.2752943
-0.010780454 -0.098970711 1.2770339
0.045639589 -0.084194042 1.2698736
-0.010494538 -0.094782196 1.2715424
0.043901503 -0.080890216 1.2652649
-0.010345388 -0.091121957 1.2668786
0.042204242 -0.077570371 1.2603977
-0.010254763 -0.087465547 1.2619568
0.040673647 -0.074227922 1.255635
-0.010321271 -0.083846383 1.2571515
0.039355844 -0.070933618 1.2513031
-0.01054354 -0.080345497 1.2527876
0.037393223 -0.06591773 1.2459434
-0.010835979 -0.074986644 1.2474287
0.03603534 -0.061617397 1.2411257
-0.0114308 -0.070571356 1.2425357
0.035752036 -0.059290446 1.2379055
-0.012198765 -0.06833481 1.2393315
0.034267612 -0.054159388 1.2331641
-0.012958158 -0.06306763 1.2345672
0.032832135 -0.050195828 1.2275808
-0.013386894 -0.058913983 1.2289549
0.030816767 -0.046391033 1.2256444
-0.013008889 -0.05465807 1.2269459
0.029454593 -0.044904232 1.2210919
0.026963335 -0.042843781 1.2199155
-0.011046167 -0.05001276 1.2210468
-0.01254442 -0.05282671 1.2223402
0.024576822 -0.042742997 1.2155588
0.019088961 -0.04078988 1.2147244
0.014209198 -0.038924061 1.2167097
-0.00079987571 -0.041754857 1.2171561
-0.0047708116 -0.04529053 1.2154335
-0.009113621 -0.049097896 1.2165601
0.035532672 -0.035064999 1.2074739
0.030591857 -0.036730729 1.2090148
0.012103895 -0.040640451 1.2131146
0.0067301467 -0.041070975 1.213147
0.0015758909 -0.042626087 1.2134278
-0.017268959 -0.045758799 1.2104369
-0.022557054 -0.046022207 1.2092004
0.03969859 -0.029344901 1.2024565
0.035249591 -0.032232422 1.2052497
0.030528776 -0.033444539 1.2046665
-0.018655878 -0.042721778 1.2061286
-0.023452114 -0.043305703 1.2069939
-0.02879912 -0.042265497 1.2044926
0.042898819 -0.024932362 1.1977235
0.039376244 -0.027011506 1.2003958
0.03408473 -0.029279713 1.2011293
-0.023680042 -0.040176049 1.2028458
-0.029466961 -0.039997175 1.202443
-0.033651557 -0.039371565 1.1999996
0.043376639 -0.023102403 1.1952934
0.039968215 -0.024085008 1.196273
-0.031318802 -0.03753195 1.1983923
-0.034900982 -0.037867762 1.1976196
0.043894168 -0.1102375 1.2903271
0.041086383 -0.11037449 1.2907387
0.044148318 -0.10850952 1.2898849
0.039607804 -0.10897963 1.2885165
0.035045836 -0.10679132 1.2877154
0.0086015109 -0.11177949 1.2885009
0.0050128736 -0.11615268 1.2902974
0.001100108 -0.11682548 1.2913944
0.044718392 -0.1046238 1.2844902
0.032579612 -0.10735282 1.2852581
0.027308945 -0.10596479 1.2836882
0.021109717 -0.10624183 1.2834003
0.01526233 -0.10823677 1.2840476
0.010957759 -0.11143149 1.2859005
-0.0013643242 -0.11331544 1.2858615
0.048099678 -0.10040536 1.2801943
-0.0062894039 -0.11066417 1.281812
0.048778754 -0.096445121 1.2764878
-0.0085744746 -0.10726367 1.2781924
0.048028745 -0.091594815 1.2723267
-0.0098811947 -0.1025179 1.2740479
0.045791984 -0.088216208 1.266692
-0.009354122 -0.098618045 1.2683322
0.043538369 -0.08489304 1.2622021
-0.0087258331 -0.094751112 1.2637569
0.04179991 -0.081886537 1.2573136
-0.0084845796 -0.091371357 1.2588087
0.040749058 -0.078522936 1.2510124
-0.0090926997 -0.087925099 1.2524927
0.039781943 -0.073964246 1.2477708
-0.0099284351 -0.083314158 1.2494273
0.038973052 -0.070605226 1.2440482
-0.01072295 -0.079979345 1.2455254
0.037123777 -0.067425042 1.2389605
-0.010458697 -0.076356754 1.2404097
0.036741611 -0.063960887 1.2351233
-0.011578489 -0.073075317 1.2365605
0.036253739 -0.059695952 1.229682
-0.012989122 -0.068984352 1.2311461
0.034620903 -0.055050559 1.2238289
-0.013497133 -0.064126872 1.2252594
0.032714415 -0.050873809 1.2199122
-0.013470028 -0.059585355 1.2212858
0.030299831 -0.048373632 1.2150487
0.028378487 -0.046200298 1.2149704
-0.011423368 -0.053707264 1.2161553
-0.012413979 -0.056431025 1.2163181
0.031692129 -0.043984171 1.211912
0.025248937 -0.043632325 1.2130719
0.021280216 -0.045445994 1.2099057
-0.0053891391 -0.050476745 1.2106984
-0.0095574483 -0.050197668 1.2141067
-0.01548573 -0.052883156 1.2133149
0.037249975 -0.039628007 1.2071908
0.030035883 -0.037983783 1.2092546
0.024655623 -0.041712958 1.2075753
0.016782705 -0.044472869 1.2091383
0.012229457 -0.04438094 1.2086977
0.0073160045 -0.04489762 1.2085617
0.0025678258 -0.04620371 1.2089841
-0.001606185 -0.047941126 1.2096856
-0.01001947 -0.048253767 1.2086058
-0.014819715 -0.046123914 1.2102674
-0.021848217 -0.050303034 1.2094461
0.041379318 -0.033573128 1.2023531
0.029071331 -0.035167992 1.20079
0.026814114 -0.038166706 1.2032809
-0.013563104 -0.045782983 1.2044808
-0.016895797 -0.043839015 1.2021557
-0.028828766 -0.046816289 1.2044405
0.044617642 -0.028888226 1.1964955
0.043213483 -0.028504178 1.199602
0.033990148 -0.029478267 1.1965653
0.031521358 -0.032257564 1.1985493
-0.020361077 -0.042044595 1.2000906
-0.023781572 -0.040375188 1.1982836
-0.03365599 -0.043545377 1.199332
0.044909298 -0.024255183 1.1924154
0.039631508 -0.025494382 1.1922553
0.03638288 -0.02705349 1.1948285
-0.026987817 -0.039007064 1.1967126
-0.030722875 -0.038765185 1.1943464
-0.036071386 -0.039531454 1.1948204
0.045046818 -0.021814436 1.1907554
-0.037182536 -0.037325501 1.193199
0.044390868 -0.11283133 1.2880744
0.042013302 -0.11373948 1.2877613
0.044907976 -0.11310539 1.2867678
0.042043958 -0.11414929 1.2863952
0.0046939515 -0.12115128 1.287647
0.001727704 -0.12120857 1.2881961
0.03984306 -0.10843644 1.2811677
0.034987651 -0.10957984 1.2796472
0.030402601 -0.1087737 1.2797298
0.013181934 -0.11202187 1.2802417
0.0092081111 -0.11444294 1.2804133
0.0043654814 -0.11512881 1.2822219
0.045702763 -0.10364143 1.2761114
0.040384267 -0.10742892 1.2740892
0.026337959 -0.10920896 1.2761335
0.021440137 -0.10873923 1.2786632
0.016912654 -0.11098648 1.2764142
0.0030900929 -0.1144636 1.2751976
-0.0031170137 -0.1128502 1.2775632
0.044266835 -0.10027763 1.268544
-0.0034401864 -0.10927669 1.2699614
0.047349498 -0.095349163 1.2701699
-0.0080066212 -0.10579121 1.2718142
0.044022966 -0.093608625 1.263792
-0.0059129335 -0.1030286 1.2652756
0.040844288 -0.090145558 1.2575283
-0.0045776851 -0.098713458 1.258878
0.040520065 -0.085017972 1.2533703
-0.0063808262 -0.093864657 1.2547648
0.040467791 -0.081953168 1.2467974
-0.0075295493 -0.091345832 1.2482998
0.041223817 -0.079204507 1.2439662
-0.0095993727 -0.088217534 1.2461686
-0.010878872 -0.087282836 1.2440736
0.039865747 -0.074196614 1.2399007
-0.010540426 -0.082361914 1.242643
-0.01166584 -0.084653586 1.2405466
0.037350204 -0.070791729 1.2344128
-0.010444351 -0.080512553 1.2364435
0.037374299 -0.066873781 1.2300416
-0.011397406 -0.076073252 1.2314911
0.036853619 -0.063148953 1.2248491
-0.012566965 -0.072470509 1.2263196
0.035159275 -0.059880875 1.2204025
-0.012436353 -0.0688584 1.2218175
0.033221927 -0.054915182 1.2167645
-0.012651104 -0.063567877 1.2181282
0.030568581 -0.052062653 1.2127684
0.028583799 -0.051496871 1.2104545
-0.0099453628 -0.058764838 1.2115989
-0.011451799 -0.059988521 1.2140183
0.031637024 -0.048348226 1.2078834
0.025810551 -0.049593419 1.2071257
0.02116362 -0.049480774 1.2066371
-0.003999535 -0.054226935 1.2073851
-0.0082506947 -0.056018755 1.2081369
-0.014076967 -0.056971237 1.2092419
0.036924869 -0.043188427 1.2033312
0.031708539 -0.04564815 1.2018297
0.026380233 -0.045519695 1.2036695
0.017096303 -0.048341021 1.2058884
0.01271262 -0.048671193 1.2051576
0.008038044 -0.049313143 1.2048352
0.0034771767 -0.050413251 1.2054319
-0.00067616254 -0.051693358 1.2064168
-0.010460567 -0.052470028 1.2047632
-0.015472967 -0.054547891 1.2032324
-0.021131489 -0.054139689 1.2050567
0.041154314 -0.03698045 1.1987046
0.036712661 -0.040610649 1.19795
0.030262224 -0.040695243 1.1987222
-0.016109329 -0.049442805 1.2000995
-0.022180807 -0.051720329 1.1996992
-0.027588349 -0.04994715 1.2007483
0.041298881 -0.033663422 1.1941751
0.034929857 -0.034585755 1.1944745
-0.022915795 -0.045497589 1.1961931
-0.029189635 -0.046960048 1.1962699
0.044239186 -0.029348701 1.1928225
0.040928252 -0.029498383 1.1915064
-0.030514013 -0.042973951 1.1936306
-0.033571202 -0.044026382 1.1951343
0.033615697 -0.10978081 1.2737428
0.030180786 -0.11017201 1.2708901
0.021629548 -0.1105426 1.2735938
0.013390277 -0.11333918 1.2713894
0.010218313 -0.11419434 1.2744389
0.0388184 -0.10560349 1.269148
0.032572191 -0.10796728 1.2668248
0.026724137 -0.10998153 1.2683402
0.021499267 -0.11071982 1.2680724
0.01638826 -0.111931 1.2686476
0.010131733 -0.11219975 1.2674929
0.0035979897 -0.11224746 1.2701938
0.040570177 -0.098554447 1.2628591
0.038070373 -0.10152226 1.2632489
0.03520615 -0.10460584 1.264145
0.029476687 -0.10658144 1.2618823
0.012221828 -0.10983676 1.2623935
0.0063058231 -0.11005709 1.2650042
0.0024698563 -0.10823748 1.2643069
-0.00095662475 -0.10638789 1.2640924
0.037175409 -0.096744664 1.2575752
0.032305818 -0.10165326 1.2574946
0.007546857 -0.10632364 1.2582297
0.0012375489 -0.1035236 1.2586424
0.03592762 -0.094386354 1.2529212
0.0012727082 -0.10092347 1.2539507
0.039446995 -0.089256339 1.2476846
0.035219468 -0.091985963 1.248594
0.00080905482 -0.098476425 1.2496175
-0.0037627593 -0.095886774 1.2516967
0.043910787 -0.086825132 1.2415488
0.040047426 -0.085917979 1.2464542
0.034804199 -0.08870551 1.2450495
0.03106318 -0.088217594 1.2417432
-0.00080556795 -0.095836267 1.2453809
-0.0057005547 -0.094989464 1.2467524
-0.010503862 -0.096531957 1.2438346
0.042896863 -0.082782321 1.23952
0.04213509 -0.080671422 1.2416661
-0.012966421 -0.090988897 1.242228
-0.015959639 -0.094036229 1.2391385
0.040124726 -0.07914795 1.2351894
0.032262843 -0.08046589 1.2319965
-0.013997458 -0.087820053 1.2377305
0.03591403 -0.074281663 1.2307377
0.033909373 -0.077944554 1.2313883
-0.0036481656 -0.085443571 1.2321464
-0.0077260919 -0.083484404 1.2325908
-0.013154373 -0.08667288 1.2337978
0.037660699 -0.070797935 1.225625
-0.010488864 -0.079880081 1.2270567
0.037180394 -0.067008451 1.222325
-0.011610456 -0.076211758 1.2237746
0.034839429 -0.064469911 1.2173989
-0.010640576 -0.073048614 1.2187506
0.032781247 -0.05941122 1.2139204
-0.010767926 -0.067625917 1.2152153
0.030795511 -0.055361792 1.2114478
0.029095918 -0.057383031 1.2084656
-0.0083928816 -0.064454526 1.2095793
-0.010537434 -0.063158818 1.2126752
0.025411172 -0.05419194 1.2063383
0.021149637 -0.054417603 1.2038308
0.015409647 -0.054642692 1.2020402
0.0029648356 -0.056990504 1.2024095
-0.0023506507 -0.058850542 1.204529
-0.0062505081 -0.060164608 1.2072787
0.012899699 -0.052704223 1.2027272
0.0088376533 -0.053985648 1.2020795
0.0046321731 -0.054263741 1.202973
0.02616067 -0.10795077 1.262189
0.021065822 -0.10931873 1.2623829
0.015820388 -0.10990117 1.2624962
0.029120501 -0.10224323 1.2551347
0.026006961 -0.10456119 1.2560339
0.020411555 -0.10673598 1.256753
0.014377071 -0.10675452 1.2563807
0.010587066 -0.10573927 1.255686
0.03041568 -0.098734856 1.2515174
0.024218386 -0.10142434 1.2502459
0.019473268 -0.10281461 1.2500664
0.014566123 -0.10324513 1.2505329
0.0078991763 -0.10298236 1.2521863
0.045100413 -0.095082633 1.2423048
0.041841846 -0.094314866 1.2447994
0.036513727 -0.094262488 1.2440541
0.029906683 -0.096024275 1.2474135
0.023426743 -0.097865403 1.2451373
0.018659595 -0.099300124 1.2449918
0.013714004 -0.099697836 1.2454246
0.0071503185 -0.1003169 1.24809
0.044856265 -0.090233266 1.2389745
0.044148069 -0.0913601 1.2435454
0.033941008 -0.092817351 1.2431391
0.029613618 -0.091787905 1.2412521
0.022418927 -0.094244488 1.2406663
0.017832337 -0.095613807 1.2405429
0.013076944 -0.096007101 1.2409431
0.0063762926 -0.09634304 1.2423191
-0.00017574802 -0.09685389 1.2428899
-0.0062465034 -0.09901578 1.2412728
-0.012410264 -0.099796139 1.2406286
0.043912619 -0.086503796 1.2384064
0.042349156 -0.084923379 1.2351582
0.028724864 -0.088232584 1.2363434
0.023358842 -0.090003215 1.2367061
0.017898202 -0.091206171 1.2365632
0.011542838 -0.091991805 1.2366861
0.0048470832 -0.093059823 1.2372559
0.00046135858 -0.095343567 1.2386154
-0.004291635 -0.098528728 1.2370251
-0.016666651 -0.09859065 1.2384603
0.039753295 -0.083963163 1.2321242
0.033395734 -0.083121613 1.2318282
0.027160071 -0.085038118 1.2327359
0.021539973 -0.087157398 1.2316958
0.017271161 -0.088380732 1.23324
0.011305602 -0.089150019 1.2323669
0.0044080764 -0.089366026 1.2329252
-0.00089161843 -0.089598171 1.2317078
-0.01627152 -0.091370843 1.2346079
-0.018217154 -0.095740095 1.2337692
0.032454859 -0.080176845 1.2270397
0.028654363 -0.083651081 1.2278821
0.0026917309 -0.088548698 1.228653
-0.002154123 -0.086705245 1.2280685
-0.0071539357 -0.089431562 1.2289281
-0.01297823 -0.090186425 1.229502
-0.016322974 -0.093212999 1.2290056
0.036024086 -0.075058036 1.2223381
0.035025701 -0.077682056 1.2249359
-0.0055730119 -0.085339956 1.2261432
-0.0076048486 -0.083287679 1.2236357
0.035668783 -0.072334968 1.2188387
0.033372112 -0.072951362 1.2157234
-0.0062852725 -0.080431975 1.2169023
-0.0084663518 -0.080659963 1.2201509
0.033964328 -0.067868739 1.2156053
0.031598046 -0.070171982 1.2129685
-0.0058057867 -0.077226855 1.214081
-0.0086927041 -0.075915299 1.2168727
0.029924605 -0.065214388 1.2096081
-0.006247513 -0.072037697 1.2106826
0.027031695 -0.061589524 1.2057266
0.021922287 -0.063526846 1.2022899
0.0001584515 -0.067632228 1.2029364
-0.0050997473 -0.067650497 1.206682
0.020575603 -0.059168994 1.2020794
0.014917698 -0.059871428 1.2004733
0.010069683 -0.060850896 1.1999681
0.0052355975 -0.061698243 1.2007599
-0.00018801168 -0.063085325 1.2026972
0.046134058 -0.097805142 1.2383406
0.043268025 -0.10013837 1.2416865
0.038221214 -0.099317603 1.2405939
0.045526434 -0.095149107 1.2372196
0.043710306 -0.094263487 1.2334768
0.034432568 -0.097951949 1.2380469
0.031969022 -0.095831536 1.2359866
-0.0082262568 -0.10079522 1.2380409
-0.012354624 -0.10253631 1.2377675
0.041444454 -0.090194814 1.2322161
0.034982245 -0.093698092 1.2309307
0.031101663 -0.093447059 1.2338855
-0.0059240945 -0.09885332 1.2338411
-0.011610337 -0.10218696 1.2326376
-0.017565075 -0.10331936 1.2342045
-0.020407844 -0.10277327 1.2318516
0.036629818 -0.090018541 1.2304084
0.01954818 -0.088902757 1.2287636
0.016383864 -0.089784719 1.2288017
0.013119133 -0.090115175 1.2289559
-0.00585033 -0.095558263 1.2289168
-0.0096163228 -0.098630466 1.2272671
-0.019489262 -0.099059485 1.2293472
-0.020577796 -0.10264735 1.2292327
0.027304932 -0.085079581 1.2240409
0.021465681 -0.0887165 1.2238855
0.016433943 -0.090568244 1.2255123
0.010989301 -0.090693258 1.224195
0.0042458363 -0.08942952 1.2247262
-0.009849593 -0.09315934 1.2266725
-0.013462543 -0.095522813 1.2255034
-0.017359521 -0.095688783 1.2274947
0.032436408 -0.079612896 1.2205377
0.027985509 -0.083520912 1.218869
0.0027496293 -0.088282108 1.2196169
-0.0027148463 -0.08624389 1.2215812
0.031204812 -0.076651797 1.2153069
0.028321791 -0.079321623 1.2138882
0.00062284619 -0.084546946 1.214711
-0.0029478222 -0.08309371 1.2163228
0.029282883 -0.073256478 1.2117909
0.024922153 -0.076449446 1.2098343
0.019471779 -0.075891271 1.2065077
0.0071785375 -0.078209952 1.2068729
0.0025054589 -0.080677815 1.2105008
-0.002598621 -0.079270162 1.2127386
0.02343728 -0.070495769 1.2053951
0.017392756 -0.072889738 1.2037818
0.012683073 -0.074191935 1.2032224
0.0078626461 -0.074686714 1.2040671
0.0014648102 -0.074640766 1.206048
0.022685878 -0.067084178 1.2032707
0.016372466 -0.067317925 1.2010627
0.011929512 -0.070533976 1.2010875
0.0066273101 -0.06915655 1.2013514
0.00079990178 -0.071212701 1.2039206
0.011140885 -0.066521615 1.2000151
0.046483148 -0.10136643 1.2373347
0.044576649 -0.10452295 1.2377945
0.038863707 -0.10266709 1.2365054
0.04587907 -0.1000469 1.2352448
0.043442488 -0.09985891 1.2321643
0.036898572 -0.10204801 1.2326585
0.041226216 -0.095323563 1.2308402
0.036771763 -0.097829051 1.2306248
-0.013828624 -0.10280591 1.2292631
-0.018039834 -0.10508697 1.2304727
-0.020087268 -0.10575525 1.2306839
-0.013128236 -0.10055993 1.2251546
-0.018023081 -0.1032656 1.2258345
-0.020256002 -0.10435949 1.2282912
0.016332759 -0.090596236 1.2219239
-0.013679411 -0.099547923 1.2236575
-0.016020507 -0.099358536 1.2240248
0.021467011 -0.087763943 1.2171524
0.015996778 -0.089653991 1.2165976
0.01025543 -0.089878969 1.2174853
0.025326194 -0.081688426 1.2123333
0.020733695 -0.08452446 1.2108064
0.015296711 -0.086951874 1.2101883
0.009394275 -0.086663201 1.2111437
0.0041799713 -0.085677177 1.2129624
0.018946828 -0.080956794 1.2083422
0.014984386 -0.081733234 1.2075914
0.0099302717 -0.08244817 1.2085358
0.016428759 -0.076869048 1.2059975
0.013415419 -0.077674411 1.2057621
0.010334346 -0.078018896 1.2061785
0.043583706 -0.10600878 1.2343664
0.040278401 -0.10593969 1.2329445
0.042096231 -0.10420228 1.2316903
0.038767476 -0.10437337 1.2315905
