# .PCD v0.7 - Point Cloud Data file format
VERSION 0.7
FIELDS x y z
SIZE 4 4 4
TYPE F F F
COUNT 1 1 1
WIDTH 554
HEIGHT 1
VIEWPOINT 0 0 0 1 0 0 0
POINTS 554
DATA ascii
0.089774303 -0.017210755 1.271
0.08977361 -0.020691814 1.271
0.092004113 -0.020414302 1.2540001
0.12205306 -0.068017185 1.2460001
0.12322515 -0.072113544 1.258
0.09149123 -0.016885148 1.2470001
0.067705862 -0.027180236 1.2490001
0.12127557 -0.060806509 1.238
0.11760387 -0.0640411 1.235
0.12146848 -0.064297326 1.24
0.11769602 -0.067474492 1.2360001
0.11807367 -0.071085073 1.24
0.11807026 -0.074476995 1.24
0.10110932 -0.088060662 1.24
0.10466789 -0.088199109 1.2420001
0.10135033 -0.091672927 1.243
0.10500125 -0.091890447 1.2460001
0.10533445 -0.095603317 1.25
0.10866418 -0.095522858 1.2490001
0.10900806 -0.09925434 1.253
0.11252217 -0.099329308 1.2540001
0.067947879 -0.089085005 1.2540001
0.071778081 -0.089579776 1.261
0.074990094 -0.089293018 1.2570001
0.077930309 -0.088722013 1.2490001
0.080956697 -0.088292986 1.243
0.072401591 -0.093840733 1.2720001
0.075464614 -0.093321592 1.2650001
0.07830184 -0.092581064 1.2550001
0.08134453 -0.092135489 1.2490001
0.0844898 -0.091837384 1.245
0.072455786 -0.097396404 1.273
0.075521417 -0.096858017 1.266
0.078673236 -0.096472554 1.261
0.081797361 -0.096086971 1.256
0.08496169 -0.09577781 1.2520001
0.088103764 -0.095468521 1.248
0.07545884 -0.10024105 1.2650001
0.078794956 -0.10007952 1.263
0.082054704 -0.099838659 1.2600001
0.085229829 -0.099518418 1.256
0.088523932 -0.099356562 1.2540001
0.09166009 -0.099036105 1.25
0.082116537 -0.10336586 1.261
0.085430011 -0.10319854 1.2590001
0.088873364 -0.10319502 1.2590001
0.092463039 -0.1033553 1.261
0.095987208 -0.10343347 1.2620001
0.12157991 -0.047370274 1.2410001
0.1213816 -0.050684676 1.2390001
0.11414419 -0.053862069 1.2340001
0.1212811 -0.054031573 1.238
0.11414164 -0.057239018 1.2340001
0.11741911 -0.057189975 1.233
0.12118046 -0.057372779 1.2370001
0.11413894 -0.060615733 1.2340001
0.11751157 -0.060612924 1.2340001
0.11385862 -0.063836634 1.2310001
0.054489601 -0.065380767 1.2600001
0.057571679 -0.064964153 1.2520001
0.054617837 -0.068994038 1.263
0.057708055 -0.068555459 1.2550001
0.055048697 -0.073025018 1.273
0.057936307 -0.072277628 1.2600001
0.05752074 -0.075185448 1.251
0.080443755 -0.077588558 1.235
0.074097812 -0.08482974 1.2420001
0.084153526 -0.088076957 1.24
0.12188328 -0.030460063 1.2440001
0.12168577 -0.033810869 1.2420001
0.11724196 -0.03688271 1.2310001
0.12168404 -0.037210502 1.2420001
0.11733536 -0.040284947 1.2320001
0.1218781 -0.040675387 1.2440001
0.11350338 -0.043481905 1.2270001
0.11733338 -0.043657057 1.2320001
0.1216801 -0.044009309 1.2420001
0.11023688 -0.04688061 1.228
0.11377881 -0.046954826 1.23
0.11752172 -0.047105335 1.2340001
0.11014494 -0.050200798 1.2270001
0.11386908 -0.050362162 1.2310001
0.11742417 -0.050441634 1.233
0.11023238 -0.053602602 1.228
0.11742171 -0.053815916 1.233
0.1102299 -0.056963276 1.228
0.11031706 -0.060372848 1.2290001
0.10977574 -0.063424632 1.223
0.11339317 -0.066931672 1.2260001
0.057390645 -0.057922862 1.248
0.057435218 -0.06138901 1.2490001
0.057301257 -0.051006269 1.2460001
0.057391979 -0.054505616 1.248
0.060370561 -0.054111231 1.2390001
0.053930137 -0.057877783 1.2470001
0.060417879 -0.057550155 1.24
0.050959717 -0.061834119 1.258
0.054231528 -0.06163618 1.2540001
0.060367677 -0.060896024 1.2390001
0.060463551 -0.064391822 1.2410001
0.060608067 -0.067952923 1.2440001
0.063447587 -0.067350321 1.233
0.060606323 -0.071358077 1.2440001
0.06349723 -0.070782661 1.2340001
0.073448688 -0.073973514 1.2310001
0.076942146 -0.074091405 1.233
0.080185689 -0.073968843 1.2310001
0.076939769 -0.077465408 1.233
0.083686881 -0.077460326 1.233
0.080376022 -0.080902055 1.2340001
0.070585214 -0.084695615 1.24
0.077246666 -0.084553927 1.238
0.10997745 -0.026645226 1.225
0.11369652 -0.026731012 1.2290001
0.11734174 -0.026795005 1.2320001
0.12198265 -0.027076438 1.245
0.10988642 -0.029974569 1.2240001
0.11351018 -0.030046662 1.2270001
0.11724514 -0.030143201 1.2310001
0.10268547 -0.033165079 1.2180001
0.10636428 -0.033272561 1.222
0.10988498 -0.033325538 1.2240001
0.11350871 -0.033405695 1.2270001
0.11724363 -0.033513024 1.2310001
0.10259968 -0.036469802 1.217
0.10627571 -0.036588099 1.2210001
0.10970386 -0.036616437 1.222
0.11341458 -0.036734622 1.2260001
0.10234515 -0.0397035 1.2140001
0.10636108 -0.039963413 1.222
0.10979191 -0.039994344 1.223
0.11341281 -0.040090628 1.2260001
0.10618518 -0.043237716 1.22
0.10987981 -0.043377567 1.2240001
0.1060962 -0.046539083 1.2190001
0.10583299 -0.049752939 1.2160001
0.10565669 -0.052993838 1.2140001
0.10574135 -0.05636273 1.215
0.10608695 -0.05988425 1.2190001
0.10249856 -0.063067064 1.2160001
0.10599726 -0.063168101 1.2180001
0.099333994 -0.066506401 1.2180001
0.096394576 -0.070128635 1.223
0.099575885 -0.070011146 1.2210001
0.053934705 -0.044218134 1.2470001
0.056797635 -0.043791603 1.235
0.054020178 -0.047709759 1.2490001
0.057210453 -0.047517668 1.2440001
0.059837107 -0.046905354 1.228
0.053802822 -0.050925575 1.2440001
0.060128246 -0.050513804 1.2340001
0.053801637 -0.054332174 1.2440001
0.050275624 -0.047405198 1.2410001
0.050153058 -0.050681055 1.238
0.05023298 -0.054158643 1.24
0.050474871 -0.057832621 1.2460001
0.0629379 -0.056759704 1.223
0.062987819 -0.060157236 1.2240001
0.063140556 -0.063663766 1.2270001
0.066226617 -0.066747665 1.222
0.066549897 -0.070436597 1.228
0.069854096 -0.070377253 1.2270001
0.07309287 -0.07026045 1.225
0.07619559 -0.070028864 1.2210001
0.060166053 -0.074222058 1.235
0.063135147 -0.073739387 1.2270001
0.066385336 -0.073617212 1.225
0.069965877 -0.073855512 1.2290001
0.083350092 -0.073786102 1.228
0.08663895 -0.073723458 1.2270001
0.089921989 -0.073660716 1.2260001
0.073386736 -0.077279307 1.23
0.086989321 -0.077394821 1.2320001
0.073444024 -0.080710448 1.2310001
0.076937273 -0.080839083 1.233
0.083684176 -0.0808338 1.233
0.080438465 -0.084346347 1.235
0.093913585 -0.016708482 1.2340001
0.093456246 -0.019990277 1.228
0.11342113 -0.019952614 1.2260001
0.076903045 -0.023433458 1.2320001
0.079623498 -0.023242487 1.222
0.085888065 -0.023126755 1.2160001
0.089362033 -0.023163939 1.2180001
0.10961947 -0.023215234 1.2210001
0.11369766 -0.023366272 1.2290001
0.11724768 -0.023403198 1.2310001
0.10584463 -0.026450641 1.2160001
0.10226526 -0.029707789 1.2130001
0.10610454 -0.02985345 1.2190001
0.098538689 -0.032894164 1.2080001
0.09845569 -0.036171649 1.207
0.10217477 -0.042956039 1.212
0.1020886 -0.046235643 1.2110001
0.10174938 -0.049386822 1.207
0.10157862 -0.052603219 1.205
0.10174493 -0.055994011 1.207
0.10216396 -0.059542902 1.212
0.098765731 -0.062810339 1.2110001
0.095766701 -0.066345245 1.215
0.10249585 -0.066394448 1.2160001
0.1092343 -0.066443317 1.217
0.092897601 -0.07001666 1.2210001
0.087938406 -0.013448769 1.245
0.090464622 -0.013318651 1.233
0.093533635 -0.013274937 1.2290001
0.069644742 -0.026613666 1.223
0.063307405 -0.030136703 1.23
0.056663882 -0.026812382 1.2320001
0.061158452 -0.027312264 1.2550001
0.059598316 -0.029965973 1.223
0.050196458 -0.040541835 1.2390001
0.053200368 -0.040246464 1.23
0.050438639 -0.044148173 1.245
0.059350967 -0.043187745 1.2180001
0.06278497 -0.053280059 1.22
0.056062791 -0.039885618 1.2190001
0.047141284 -0.047673561 1.248
0.047064774 -0.051009595 1.2460001
0.062426087 -0.049652886 1.2130001
0.04713928 -0.054509159 1.248
0.065635569 -0.056201253 1.2110001
0.065796554 -0.059664138 1.2140001
0.065903239 -0.063091315 1.2160001
0.069286756 -0.066472672 1.217
0.072319239 -0.066197604 1.212
0.079210959 -0.069739848 1.2160001
0.069735974 -0.076967426 1.225
0.08995147 -0.0098852292 1.2260001
0.093001343 -0.0098526003 1.222
0.096186653 -0.0098360851 1.22
0.096028514 -0.013155602 1.2180001
0.095476031 -0.016396413 1.2110001
0.11277439 -0.016501157 1.2190001
0.094923437 -0.019598816 1.2040001
0.108992 -0.019758226 1.2140001
0.082492582 -0.023108555 1.215
0.09208554 -0.023010917 1.21
0.094528377 -0.022800827 1.199
0.10514937 -0.022969086 1.2080001
0.072336227 -0.0263735 1.212
0.075341716 -0.02626387 1.207
0.078449838 -0.026197733 1.2040001
0.081541218 -0.026131565 1.2010001
0.084827706 -0.026130637 1.2010001
0.088187233 -0.02615143 1.202
0.091323555 -0.026106922 1.2
0.094448559 -0.026062382 1.1980001
0.097806975 -0.026083078 1.199
0.1016763 -0.026234254 1.2060001
0.094447456 -0.029342845 1.1980001
0.098295256 -0.029513096 1.205
0.094446212 -0.032623187 1.1980001
0.094208337 -0.035813484 1.1950001
0.098046288 -0.039312683 1.202
0.097881474 -0.042532511 1.2
0.097879656 -0.045817573 1.2
0.094359249 -0.04898167 1.197
0.097877711 -0.049102448 1.2
0.094514884 -0.052345574 1.199
0.097875632 -0.052387126 1.2
0.097954981 -0.055717979 1.2010001
0.098360434 -0.059250597 1.2060001
0.086738355 -0.006538264 1.228
0.089878403 -0.0065220501 1.225
0.087020591 -0.0099339718 1.2320001
0.065970406 -0.029817367 1.217
0.068618901 -0.029522512 1.205
0.053333726 -0.02345698 1.233
0.06212277 -0.032879248 1.207
0.046463836 -0.036878996 1.23
0.049386989 -0.036548439 1.2190001
0.058864724 -0.039524723 1.2080001
0.062170029 -0.046140231 1.2080001
0.065366082 -0.052667219 1.2060001
0.068778016 -0.059367571 1.2080001
0.07149981 -0.029350128 1.1980001
0.074529357 -0.029251209 1.194
0.077732176 -0.029225755 1.1930001
0.08092919 -0.029200256 1.192
0.08433228 -0.029248212 1.194
0.087599263 -0.029247139 1.194
0.090941973 -0.029270519 1.1950001
0.058671635 -0.032798383 1.2040001
0.06515643 -0.032742154 1.202
0.068162426 -0.032605018 1.197
0.087304652 -0.032407843 1.1900001
0.090712473 -0.032461077 1.192
0.061710104 -0.035945356 1.199
0.061812043 -0.039294675 1.2010001
0.094049171 -0.039019909 1.1930001
0.061913889 -0.042654775 1.2030001
0.094047561 -0.04228612 1.1930001
0.094203472 -0.045628514 1.1950001
0.091007069 -0.052216645 1.1960001
0.052381549 -0.026355965 1.2110001
0.055559367 -0.029599173 1.2080001
0.055236675 -0.032717466 1.2010001
0.052379433 -0.036307789 1.2110001
0.05546581 -0.036157042 1.2060001
0.058524579 -0.036006253 1.2010001
0.064721815 -0.035794482 1.194
0.064772606 -0.045642447 1.1950001
0.064988092 -0.049078472 1.199
0.068211906 -0.052316364 1.1980001
0.068495013 -0.055828389 1.2030001
0.071549073 -0.0556411 1.199
0.071845695 -0.059169229 1.2040001
0.068833172 -0.062726349 1.2090001
0.11730501 -0.077366263 1.2320001
0.10070507 -0.084327877 1.235
0.1038287 -0.084119603 1.2320001
0.097403683 -0.087780073 1.2360001
0.097557805 -0.091307774 1.238
0.10788511 -0.091444127 1.24
0.097869411 -0.094999053 1.2420001
0.10167275 -0.095377743 1.2470001
0.11153934 -0.095059894 1.243
0.11447375 -0.094673328 1.238
0.11833237 -0.095051385 1.243
0.098259658 -0.09879104 1.2470001
0.10191345 -0.099024832 1.25
0.10558324 -0.099258468 1.253
0.11604132 -0.099404134 1.2550001
0.12032705 -0.10011247 1.2640001
0.10288779 -0.10342552 1.2620001
0.10650598 -0.10358524 1.2640001
0.11013473 -0.10374483 1.266
0.11368424 -0.10382235 1.2670001
0.0692458 -0.09428601 1.2780001
0.08761286 -0.091539182 1.2410001
0.091150291 -0.095082656 1.243
0.094926126 -0.098874018 1.248
0.078916579 -0.10369703 1.2650001
0.099358894 -0.10334759 1.261
0.10038223 -0.080687679 1.2310001
0.097091809 -0.084126376 1.2320001
0.10701886 -0.087343268 1.23
0.09071368 -0.091240875 1.2370001
0.093944386 -0.091089986 1.235
0.094397306 -0.094926171 1.2410001
0.083681375 -0.084206939 1.233
0.087192401 -0.087718792 1.235
0.06533663 -0.093698293 1.2700001
0.072339132 -0.10071942 1.271
0.075575121 -0.10386413 1.2670001
0.082438752 -0.107237 1.266
0.085969329 -0.10731819 1.2670001
0.061032601 -0.092446387 1.253
0.10240871 -0.06966424 1.215
0.11292762 -0.069999091 1.2210001
0.093275279 -0.07365796 1.2260001
0.096549377 -0.07359504 1.225
0.099736072 -0.073471949 1.223
0.10257429 -0.073108487 1.217
0.11246193 -0.073038876 1.2160001
0.090065911 -0.077140763 1.228
0.093272418 -0.077012248 1.2260001
0.096546419 -0.076946467 1.225
0.099977687 -0.077006221 1.2260001
0.10282402 -0.076626197 1.22
0.089916348 -0.080369219 1.2260001
0.093193352 -0.080300666 1.225
0.096779771 -0.080494232 1.228
0.10332645 -0.080356658 1.2260001
0.11634921 -0.080080383 1.222
0.093418479 -0.083856449 1.228
0.093719535 -0.087499335 1.2320001
0.11010761 -0.09048155 1.2270001
0.054180495 -0.078736708 1.253
0.069790646 -0.080384992 1.2260001
0.086774699 -0.080568776 1.2290001
0.066758163 -0.084151551 1.2320001
0.086771809 -0.083930865 1.2290001
0.089986689 -0.083791286 1.2270001
0.063795567 -0.088092782 1.24
0.090350248 -0.087502576 1.2320001
0.10555933 -0.066227831 1.2130001
0.089191154 -0.069732554 1.2160001
0.10529535 -0.069374606 1.21
0.10860301 -0.069371581 1.21
0.1052923 -0.072684906 1.21
0.10833061 -0.072501533 1.207
0.10537612 -0.076057717 1.2110001
0.11199614 -0.076051012 1.2110001
0.10563383 -0.079566777 1.2140001
0.1059784 -0.083160199 1.2180001
0.082266524 -0.069508098 1.212
0.085582301 -0.069505669 1.212
0.056645349 -0.077415347 1.2320001
0.059530858 -0.076785117 1.222
0.062670089 -0.076531827 1.2180001
0.06611231 -0.07665544 1.22
0.066110149 -0.079993829 1.22
0.062871717 -0.083470725 1.222
0.059865769 -0.087313518 1.2290001
0.094512753 -0.055627428 1.199
0.094668142 -0.059007324 1.2010001
0.09498103 -0.062501647 1.205
0.091835 -0.065910958 1.207
0.071903504 -0.06251695 1.205
0.075324059 -0.065922469 1.207
0.078236073 -0.065592661 1.2010001
0.052968025 -0.080329619 1.225
0.055907868 -0.079737641 1.2160001
0.059139203 -0.079604581 1.2140001
0.062513694 -0.07966812 1.215
0.059234615 -0.083062999 1.2160001
0.10091856 -0.022760913 1.197
0.090482846 -0.035635069 1.189
0.0904814 -0.038890611 1.189
0.090479843 -0.04214599 1.189
0.090630352 -0.045477562 1.1910001
0.087370448 -0.048739899 1.1910001
0.09078072 -0.048819896 1.1930001
0.087515287 -0.052087635 1.1930001
0.087366588 -0.055260513 1.1910001
0.090928897 -0.05544401 1.1950001
0.090926707 -0.058714811 1.1950001
0.091152668 -0.062140983 1.1980001
0.088093415 -0.065585785 1.2010001
0.071252339 -0.05214012 1.194
0.074580945 -0.055453744 1.1950001
0.07476636 -0.058872532 1.1980001
0.074826837 -0.062203728 1.199
0.10151185 -0.0064092148 1.2040001
0.1034987 -0.0063290903 1.189
0.11064813 -0.006365777 1.1960001
0.098381713 -0.0097228158 1.2060001
0.10041546 -0.0096014813 1.1910001
0.10315017 -0.0095526977 1.1850001
0.10674947 -0.0095845144 1.189
0.11111034 -0.0096808048 1.2010001
0.097810201 -0.012949855 1.199
0.10033067 -0.012852111 1.1900001
0.10341082 -0.012829954 1.1880001
0.1074672 -0.012926574 1.197
0.11203496 -0.013077162 1.2110001
0.097401716 -0.016165581 1.194
0.10024573 -0.016097208 1.189
0.10375837 -0.016137125 1.192
0.10809502 -0.016298855 1.2040001
0.097319409 -0.019418964 1.1930001
0.10049791 -0.019401873 1.192
0.10445394 -0.019531239 1.2
0.097481683 -0.022723835 1.1950001
0.074216269 -0.032385111 1.189
0.077340208 -0.032329578 1.187
0.080724448 -0.03238295 1.189
0.083978027 -0.032381799 1.189
0.077208765 -0.035520308 1.1850001
0.080451697 -0.035519097 1.1850001
0.083764926 -0.035547815 1.1860001
0.08708328 -0.035576481 1.187
0.077142365 -0.03873264 1.184
0.080382518 -0.038731322 1.184
0.083622329 -0.038729955 1.184
0.08693517 -0.038761247 1.1850001
0.083550252 -0.041936439 1.1830001
0.086933658 -0.042005792 1.1850001
0.083619304 -0.045213636 1.184
0.087152116 -0.045364726 1.1880001
0.083758883 -0.048537057 1.1860001
0.083898313 -0.051871222 1.1880001
0.071081087 -0.03244061 1.1910001
0.074333012 -0.052007493 1.1910001
0.077396937 -0.051874805 1.1880001
0.080579914 -0.051829383 1.187
0.077720895 -0.055359136 1.1930001
0.080781721 -0.055218063 1.1900001
0.083967023 -0.055169724 1.189
0.077784151 -0.058674052 1.194
0.087291129 -0.058471348 1.1900001
0.087508962 -0.061883956 1.1930001
0.067819759 -0.035703525 1.1910001
0.070841305 -0.035582539 1.187
0.073965512 -0.03552147 1.1850001
0.064666562 -0.039031859 1.1930001
0.067704774 -0.038899872 1.189
0.073901907 -0.038733911 1.184
0.064611219 -0.04226359 1.192
0.07390061 -0.041976165 1.184
0.077075876 -0.041939344 1.1830001
0.067759246 -0.045450177 1.1900001
0.070837587 -0.045334231 1.187
0.074024044 -0.045294624 1.1860001
0.067814812 -0.048749622 1.1910001
0.070895828 -0.048625369 1.1880001
0.074022546 -0.048541989 1.1860001
0.080711879 -0.05842638 1.189
0.083894379 -0.058375198 1.1880001
0.077782162 -0.061942324 1.194
0.081182793 -0.065317385 1.1960001
0.084525511 -0.06536971 1.197
0.045633461 -0.032910317 1.2080001
0.048698965 -0.032746181 1.202
0.051861167 -0.03266374 1.199
0.067589708 -0.042085107 1.187
0.045521785 -0.022925269 1.205
0.049348995 -0.023172121 1.2180001
0.048578665 -0.02609537 1.199
0.039242305 -0.029773735 1.215
0.04211501 -0.029454648 1.202
0.04518076 -0.029307064 1.1960001
0.048375499 -0.029257452 1.194
0.051775355 -0.029330324 1.197
0.042780146 -0.033265114 1.2210001
0.10454348 -0.0031042299 1.2010001
0.10666026 -0.0030704918 1.1880001
0.11064836 -0.0030910268 1.1960001
0.10648049 -0.0063128406 1.1860001
0.080177449 -0.041867018 1.1810001
0.080175944 -0.045100667 1.1810001
0.080310099 -0.048415985 1.1830001
0.038823672 -0.019575814 1.202
0.042536829 -0.0197709 1.2140001
0.046353318 -0.019982232 1.2270001
0.032344792 -0.022945851 1.2060001
0.035323568 -0.022736222 1.1950001
0.038532622 -0.022697803 1.1930001
0.041940782 -0.022773502 1.197
0.035796143 -0.026358478 1.2110001
0.0386937 -0.026075095 1.1980001
0.041835219 -0.025987573 1.194
0.045105748 -0.025987078 1.194
0.070720807 -0.038767841 1.1850001
0.07071957 -0.042012937 1.1850001
0.032559909 -0.016445575 1.2140001
0.035944935 -0.016472423 1.2160001
0.032210991 -0.019560138 1.2010001
0.035383016 -0.019494699 1.197
0.11652783 -0.090252228 1.2240001
0.10805809 -0.07561478 1.2040001
0.10814442 -0.07897348 1.205
0.11153022 -0.079035498 1.2060001
0.10814088 -0.08226905 1.205
0.11577417 -0.083012573 1.2160001
0.10894488 -0.086203381 1.2140001
0.11143032 -0.085560508 1.205
0.11577026 -0.086337633 1.2160001
0.11253604 -0.089740157 1.217
0.049814984 -0.084025025 1.23
0.052577078 -0.083066881 1.2160001
0.055768039 -0.08286006 1.2130001
0.04985372 -0.087461546 1.2310001
0.052877873 -0.086891308 1.223
0.056179825 -0.086818285 1.222
0.053524453 -0.091343939 1.238
0.056867357 -0.091268107 1.2370001
0.08077769 -0.061732735 1.1900001
0.084033467 -0.061730582 1.1900001
0.077009268 -0.045140393 1.182
0.077072859 -0.048417628 1.1830001
0.11115666 -0.082060583 1.202
