# .PCD v0.7 - Point Cloud Data file format
VERSION 0.7
FIELDS x y z
SIZE 4 4 4
TYPE F F F
COUNT 1 1 1
WIDTH 726
HEIGHT 1
VIEWPOINT 0 0 0 1 0 0 0
POINTS 726
DATA ascii
0.099152684 -0.04059875 1.2897191
0.1032885 -0.036426593 1.2864709
0.097713202 -0.035708688 1.2885221
0.092690647 -0.038923066 1.2890151
0.10148923 -0.032719001 1.2825205
0.095632762 -0.032492653 1.2852508
0.090134621 -0.035521764 1.2846044
0.094619721 -0.03148092 1.2797829
0.10262492 -0.044195864 1.2875433
0.096970767 -0.045528207 1.2889004
0.10608838 -0.041076161 1.2838209
0.091285467 -0.044563647 1.2873744
0.10603765 -0.037359692 1.2791544
0.087740123 -0.041671038 1.2835448
0.099649787 -0.033983968 1.2745641
0.091152862 -0.034834266 1.2751572
0.087689668 -0.037954442 1.27888
0.10263988 -0.047663238 1.2845308
0.098746553 -0.049447358 1.2836013
0.10539478 -0.045585986 1.2798631
0.098235741 -0.04821844 1.2792642
0.092040569 -0.048731774 1.2830689
0.10596722 -0.040998098 1.2763537
0.10245387 -0.042213369 1.2731919
0.09570308 -0.042537313 1.2742879
0.089957535 -0.045157943 1.276191
0.088128626 -0.045201089 1.2806345
0.099503607 -0.038075056 1.2704575
0.093690693 -0.039776478 1.2706629
0.088338375 -0.041423228 1.2731037
0.11517601 -0.053430103 1.2762421
0.11066616 -0.055525854 1.2797477
0.10546109 -0.054201152 1.2804939
0.10025674 -0.054465339 1.2815528
0.095541745 -0.056537904 1.2828757
0.091633499 -0.060009632 1.2843167
0.085641235 -0.060388967 1.2833303
0.11158691 -0.050072365 1.275894
0.10413864 -0.048070408 1.2770944
0.09833312 -0.049685948 1.277383
0.093931869 -0.049994849 1.2794644
0.088516951 -0.054109368 1.2812181
0.11261378 -0.044873644 1.268669
0.10631803 -0.0427844 1.2709641
0.10116449 -0.045657557 1.2732393
0.096290842 -0.047327805 1.2734292
0.091691762 -0.047145657 1.2753299
0.085916743 -0.047590446 1.2758611
0.080795079 -0.052370384 1.276306
0.10977384 -0.040371906 1.2618949
0.10434185 -0.039231535 1.2651507
0.095466554 -0.043744542 1.2712725
0.083480507 -0.044146355 1.2701581
0.078231245 -0.047804337 1.269465
0.10705018 -0.038130004 1.2564911
0.10207967 -0.037129354 1.2596399
0.096987605 -0.036842253 1.2620335
0.091943935 -0.037358142 1.2637086
0.086984366 -0.039199583 1.2644334
0.082016826 -0.041856013 1.2644571
0.077122211 -0.045181122 1.2636746
0.099929273 -0.035706237 1.2546179
0.095172495 -0.035528239 1.2568591
0.090362743 -0.036034726 1.2584199
0.085643157 -0.037772771 1.2591476
0.080962092 -0.040175326 1.2591702
0.09317714 -0.033440161 1.2517768
0.088669062 -0.034091551 1.2532699
0.084157467 -0.035565503 1.2539418
0.091016829 -0.03051766 1.2465075
0.086660668 -0.031014901 1.2479219
0.082369134 -0.032554992 1.2485832
0.084840432 -0.028068151 1.2432312
0.11211801 -0.063864261 1.2814001
0.094719261 -0.067963764 1.2855765
0.11918944 -0.060008816 1.2777365
0.11488929 -0.059757251 1.2795841
0.10842815 -0.061762631 1.2817641
0.10217385 -0.061252277 1.2828783
0.096926242 -0.064472929 1.2845246
0.089989305 -0.065624163 1.2855598
0.085873514 -0.067857772 1.2857342
0.12046327 -0.056192361 1.2736821
0.08149448 -0.065374359 1.2830348
0.12016064 -0.050880171 1.266319
0.11728549 -0.050368194 1.2712477
0.080510989 -0.059032902 1.2800732
0.076311693 -0.061210614 1.2768446
0.11706612 -0.046441887 1.262477
0.07524173 -0.056295708 1.2725163
0.11428392 -0.042875323 1.2574214
0.073768646 -0.05242078 1.2671463
0.11134553 -0.040306859 1.2524316
0.072870687 -0.049371749 1.2616667
0.10660529 -0.03736205 1.2498047
0.074268281 -0.044980891 1.2575669
0.099822626 -0.0339191 1.2483389
0.077582791 -0.039158884 1.2536769
0.097454697 -0.031003002 1.2433898
0.076100811 -0.036034197 1.2485144
0.097557306 -0.02843884 1.2376046
0.091257691 -0.027700409 1.2408079
0.080594391 -0.029626522 1.243793
0.074449331 -0.033064909 1.2437844
0.093737766 -0.025314488 1.2339318
0.087284252 -0.024731258 1.2367387
0.083013654 -0.025248472 1.2383875
0.078681409 -0.026757866 1.2388045
0.072575718 -0.030300114 1.2390108
0.092384785 -0.02324491 1.2297759
0.085852936 -0.022678947 1.2324909
0.08152011 -0.023243571 1.2341323
0.077121049 -0.024736797 1.2345849
0.070985317 -0.028286401 1.2349118
0.088945493 -0.021050118 1.2267749
0.084518403 -0.020906042 1.2284912
0.080162793 -0.021488341 1.2302001
0.075709164 -0.02298118 1.2306061
0.071502402 -0.025160227 1.2309599
0.087671652 -0.019531041 1.2228627
0.08279261 -0.018923502 1.2230834
0.078060597 -0.019261502 1.223626
0.073912755 -0.021016279 1.2252131
0.070187584 -0.023650818 1.2270583
0.12105188 -0.071291119 1.2801743
0.090216592 -0.078555502 1.2875769
0.12494001 -0.067942373 1.2765125
0.121079 -0.067370713 1.2790091
0.1162881 -0.069321007 1.2806811
0.10999289 -0.069125175 1.2805256
0.098262131 -0.071889356 1.2833401
0.093396753 -0.07471472 1.2861747
0.088033229 -0.075155914 1.286943
0.084122062 -0.077559233 1.28631
0.12544926 -0.062093619 1.2721337
0.12217765 -0.060725033 1.2755462
0.10340017 -0.068093672 1.281271
0.080226913 -0.072213009 1.2836455
0.12398021 -0.056589004 1.267604
0.077907443 -0.066466883 1.2805816
0.074570671 -0.069207996 1.2775424
0.12276557 -0.052988399 1.2609751
0.072824091 -0.064754471 1.2729629
0.12018125 -0.049444102 1.2569132
0.071631685 -0.060882263 1.2685667
0.11737366 -0.046195693 1.2522345
0.07047537 -0.057245471 1.2634907
0.11444122 -0.043479353 1.2476687
0.069693275 -0.054022662 1.2584085
0.11042748 -0.039786104 1.2414711
0.10598309 -0.035810269 1.2436074
0.071434841 -0.043949675 1.2519013
0.068655178 -0.049628254 1.2514966
0.10665113 -0.035270251 1.2354209
0.10351223 -0.032721587 1.239135
0.070167556 -0.04057752 1.2471396
0.067143582 -0.044578746 1.2449027
0.10318808 -0.031332199 1.2332246
0.067288622 -0.039790161 1.2418422
0.10143611 -0.028872784 1.2288383
0.065751724 -0.037280455 1.2374029
0.0983437 -0.02570593 1.226302
0.065781504 -0.033378795 1.2341162
0.096404195 -0.023364652 1.2207203
0.092595622 -0.021295726 1.2229778
0.067061126 -0.027311314 1.2291071
0.063929319 -0.031015396 1.2285165
0.094730556 -0.021319978 1.2159135
0.088706166 -0.018972617 1.2187195
0.081962779 -0.018226719 1.220394
0.073119581 -0.020310361 1.2225165
0.067340359 -0.024006113 1.2238482
0.062324286 -0.028955262 1.2236928
0.087192044 -0.018080257 1.2142378
0.081376985 -0.017727206 1.2131176
0.076357484 -0.018232206 1.21754
0.070236966 -0.020351209 1.2157922
0.066236123 -0.023017971 1.219267
0.075349614 -0.018466992 1.2131104
0.12342894 -0.077976815 1.2813921
0.09111844 -0.08569856 1.2890669
0.12345195 -0.075190306 1.2810953
0.11936349 -0.075777069 1.2809149
0.093854547 -0.081850052 1.287038
0.090613425 -0.083046153 1.2889715
0.12698191 -0.070972756 1.2744988
0.12426138 -0.070971705 1.2781497
0.11506391 -0.073717646 1.2797906
0.11032571 -0.074261844 1.2783474
0.10424575 -0.074293986 1.2787085
0.099231765 -0.076876462 1.2810075
0.095849365 -0.078244984 1.284403
0.086651057 -0.079833373 1.287177
0.082909703 -0.081356354 1.2850772
0.12950459 -0.0671359 1.2691367
0.12728411 -0.06526804 1.2721
0.079219162 -0.076592922 1.2836357
0.076962858 -0.079515606 1.2817464
0.12898239 -0.063757733 1.265313
0.07430017 -0.076640785 1.2784389
0.12707078 -0.060147446 1.2608752
0.072381318 -0.073032312 1.2740027
0.1243405 -0.056433503 1.2560908
0.070921585 -0.069018878 1.2689136
0.1217483 -0.05337631 1.2517127
0.069804624 -0.065614514 1.2641796
0.11896187 -0.050377734 1.2470617
0.068750031 -0.062208153 1.2591145
0.11622716 -0.047644164 1.2426447
0.067867115 -0.059038203 1.2542522
0.11366574 -0.045067005 1.2385845
0.06706582 -0.056046095 1.2497698
0.11001712 -0.040458772 1.2330641
0.065641955 -0.050914001 1.2437153
0.10706234 -0.03629829 1.2278216
0.063974425 -0.046450324 1.2381634
0.10570776 -0.03400144 1.2241462
0.062496185 -0.044181839 1.2345194
0.10453092 -0.03205087 1.2205639
0.10106608 -0.027733251 1.2218088
0.062532984 -0.036812715 1.2310567
0.061063677 -0.042292312 1.2309977
0.099149078 -0.025323713 1.2166057
0.060796872 -0.034360014 1.2258118
0.09756729 -0.02348242 1.2124914
0.059503764 -0.032449976 1.2216291
0.092441857 -0.019888889 1.210116
0.087954596 -0.018373165 1.2097037
0.063797742 -0.024065012 1.2155015
0.061041884 -0.027286749 1.2176533
0.090022534 -0.020354528 1.2048903
0.086460307 -0.018983271 1.2060059
0.079636723 -0.019084392 1.2065101
0.074279577 -0.019978188 1.2071691
0.069349073 -0.021508249 1.2089804
0.063651726 -0.024357423 1.2114794
0.060913146 -0.027212679 1.2118777
0.12405589 -0.081290036 1.2785501
0.091223717 -0.088523306 1.2868254
0.1274996 -0.080535457 1.2754945
0.12443292 -0.079751879 1.2752324
0.11922978 -0.08025194 1.2769361
0.094064921 -0.086180948 1.2829747
0.089630485 -0.08860822 1.2837591
0.087095708 -0.089658171 1.2856193
0.13004984 -0.072530121 1.2694676
0.12868796 -0.07618548 1.270516
0.11530921 -0.080236651 1.2748765
0.11153577 -0.078743204 1.2750595
0.10451382 -0.079053685 1.2751536
0.098747298 -0.081756495 1.2781285
0.096294105 -0.084716022 1.2794422
0.082039505 -0.087176368 1.2817125
0.078954756 -0.084567778 1.2817321
0.13068457 -0.071652398 1.2648121
0.076070249 -0.084520355 1.2779201
0.13017824 -0.067283049 1.2615441
0.073214442 -0.080704361 1.2752157
0.12802228 -0.064190455 1.256745
0.071553364 -0.077494644 1.2702985
0.12473312 -0.060860101 1.2516593
0.070571207 -0.073620543 1.2646593
0.12198091 -0.057900403 1.2473196
0.069639966 -0.070231505 1.2598832
0.1192183 -0.054938037 1.2427174
0.068602458 -0.066863328 1.2548662
0.11663802 -0.051940311 1.2381843
0.067434847 -0.063532233 1.2499945
0.11435096 -0.04895708 1.2340347
0.066205017 -0.060299952 1.2455926
0.11114755 -0.04434219 1.2289188
0.064621352 -0.055274628 1.2401381
0.10867703 -0.040385045 1.2242528
0.062878549 -0.051175974 1.2352448
0.10766572 -0.038260609 1.2210394
0.061399765 -0.04916063 1.2321448
0.10504317 -0.033475708 1.2164315
0.059476547 -0.04421163 1.2273679
0.10236761 -0.029901709 1.2110456
0.057772577 -0.040408462 1.2217503
0.099827871 -0.026300278 1.2093537
0.057541892 -0.036263429 1.2195021
0.09754774 -0.025134426 1.2050843
0.094775856 -0.023248719 1.2043132
0.058102168 -0.0318885 1.2131175
0.057024427 -0.034682203 1.214811
0.09160009 -0.023495903 1.2005011
0.08596158 -0.021820186 1.2006491
0.081461996 -0.020044683 1.2034478
0.066980273 -0.023456335 1.206924
0.06294027 -0.027244147 1.2061757
0.059093222 -0.03115467 1.2083027
0.10040286 -0.015853927 1.1900887
0.095939279 -0.017628949 1.1926346
0.078800112 -0.022049144 1.2004155
0.073561013 -0.022696512 1.2015067
0.068641976 -0.024442282 1.2028532
0.049759991 -0.028509237 1.2037182
0.044354156 -0.029059172 1.2035419
0.10323595 -0.010266345 1.1840895
0.099555835 -0.013167996 1.187826
0.094879404 -0.014603458 1.1882269
0.047422796 -0.02578415 1.1996175
0.0429167 -0.026512939 1.2014214
0.037144914 -0.025837822 1.1999531
0.10524365 -0.0060060322 1.1786197
0.1024074 -0.0080704093 1.1820201
0.097476617 -0.010507073 1.1838708
0.041741446 -0.023638932 1.1972487
0.035983026 -0.023720302 1.1979637
0.031383142 -0.023407614 1.1963493
0.10515456 -0.0043008588 1.1760571
0.10205096 -0.0053640008 1.1777239
0.033268668 -0.021569731 1.1942334
0.029627092 -0.022095554 1.1941847
0.12825869 -0.085733332 1.2733008
0.1255922 -0.085961208 1.2742536
0.12833494 -0.084024802 1.2727344
0.12364741 -0.084757939 1.2722946
0.1189107 -0.082807869 1.2722849
0.093395397 -0.088819422 1.2784085
0.090444624 -0.093224883 1.2810748
0.086853117 -0.093992978 1.2829386
0.12766524 -0.080435589 1.2671497
0.11605325 -0.083609819 1.2703813
0.11051627 -0.08253105 1.2697951
0.10439907 -0.083077393 1.2707249
0.098893091 -0.085269131 1.2725857
0.095190868 -0.088525362 1.2753876
0.083201826 -0.090910584 1.2778231
0.12994374 -0.076336429 1.262082
0.077465877 -0.088699937 1.2746793
0.12969938 -0.072571427 1.2581273
0.07436125 -0.08560954 1.2714096
0.12792177 -0.06800323 1.2539594
0.072046578 -0.081167378 1.2673714
0.12448102 -0.065048307 1.2487073
0.071272761 -0.077584237 1.2614797
0.1212451 -0.062083721 1.2445824
0.070817381 -0.073964328 1.2566872
0.11845422 -0.05943675 1.2399827
0.069936551 -0.070867531 1.2516285
0.11604947 -0.056486525 1.2338489
0.067958713 -0.067817658 1.2453904
0.11424959 -0.052165322 1.2306385
0.066318512 -0.063428804 1.2423245
0.11257428 -0.049061831 1.226984
0.06462431 -0.060359184 1.2384928
0.1096279 -0.046257541 1.2222023
0.063721538 -0.057028905 1.2332535
0.1083436 -0.04303832 1.2183479
0.061721474 -0.05402261 1.22954
0.10660866 -0.039116733 1.212904
0.059096076 -0.050310798 1.224309
0.10365343 -0.034886129 1.2072598
0.057225987 -0.045824673 1.2184035
0.10082334 -0.031023063 1.2035878
0.056261852 -0.041521825 1.214285
0.097400501 -0.028907303 1.199168
0.095391035 -0.02682263 1.1993573
0.056987882 -0.035869852 1.2085764
0.056187369 -0.038617812 1.2090596
0.097941875 -0.024652328 1.1956124
0.091829643 -0.024498273 1.1979772
0.087428123 -0.026651356 1.1957304
0.061695814 -0.032714218 1.2019066
0.058246329 -0.032410573 1.2060387
0.052421793 -0.035377048 1.206539
0.10226561 -0.020351224 1.1897005
0.095504269 -0.018887745 1.1930379
0.090100914 -0.022923674 1.1926137
0.082823485 -0.025908731 1.1958008
0.078271568 -0.026028553 1.1962445
0.07345596 -0.026752565 1.1970862
0.068949364 -0.028225221 1.1984817
0.065080695 -0.030088637 1.2000597
0.05664409 -0.030806448 1.2006437
0.052146994 -0.028782994 1.2030963
0.045314953 -0.033285845 1.2038532
0.10508005 -0.014420863 1.1838685
0.092799127 -0.016604692 1.1847937
0.091215521 -0.019544987 1.1878159
0.052256949 -0.028723773 1.1971673
0.048446909 -0.027054697 1.1954385
0.037338793 -0.03038102 1.2001287
0.1068965 -0.0099519715 1.1772753
0.10609347 -0.0094479099 1.1805729
0.096523046 -0.010971054 1.1794273
0.094623998 -0.013730247 1.1819834
0.044564366 -0.025525138 1.1939976
0.04078126 -0.024103669 1.1928074
0.031464815 -0.027609281 1.1958975
0.10616663 -0.0055531785 1.172997
0.10102622 -0.0070141926 1.1739206
0.098412886 -0.0085543729 1.1771456
0.037268743 -0.022960396 1.1918218
0.033143692 -0.023007702 1.1902137
0.028030775 -0.023963546 1.1917489
0.10585958 -0.0032084621 1.1712252
0.026519381 -0.021901762 1.1902688
0.12844831 -0.088429578 1.2711229
0.12610459 -0.089450568 1.2713199
0.1287199 -0.088756785 1.2697562
0.12589483 -0.089936532 1.2699951
0.089881957 -0.098375991 1.2787819
0.087082177 -0.098522753 1.2798963
0.12244743 -0.084628567 1.2650216
0.11745657 -0.086054884 1.2645255
0.11293679 -0.085433587 1.2654538
0.0963213 -0.089348122 1.2694422
0.092582867 -0.091915533 1.2704962
0.088216364 -0.092693865 1.2732376
0.12698077 -0.079896629 1.2587018
0.12157547 -0.084007934 1.2579325
0.10828874 -0.086240411 1.2627374
0.10394663 -0.085826918 1.2661399
0.099194646 -0.088382632 1.2649209
0.085591733 -0.092485838 1.2665697
0.079876378 -0.090994649 1.270009
0.12395686 -0.077034727 1.2514015
0.077925801 -0.087880068 1.2624493
0.12703663 -0.071899518 1.2521603
0.073625162 -0.084483877 1.2649788
0.12246957 -0.070665769 1.2464694
0.07428807 -0.082018271 1.2580333
0.11798121 -0.067701235 1.2407788
0.074155048 -0.078026921 1.2512974
0.11660738 -0.062838867 1.2365179
0.071354568 -0.073500544 1.247381
0.11514482 -0.060161542 1.229939
0.068865672 -0.071406454 1.2411457
0.1152049 -0.057551663 1.2268859
0.066269994 -0.068493202 1.2393055
0.064568125 -0.067733549 1.2374543
0.11284146 -0.052845627 1.2229215
0.064375095 -0.062893584 1.2357495
0.062989071 -0.065345772 1.2340237
0.10915416 -0.049867485 1.2178656
0.063191406 -0.061401092 1.2295666
0.10814297 -0.046209652 1.2133878
0.061084814 -0.057296537 1.2246827
0.10645095 -0.042813838 1.20822
0.058767065 -0.054047849 1.219667
0.10377434 -0.039878804 1.2040322
0.057851076 -0.050698228 1.2150555
0.10092686 -0.035213981 1.2006015
0.056665577 -0.045641996 1.2112252
0.097417444 -0.032706805 1.1970603
0.095001414 -0.032356493 1.1951493
0.057825789 -0.041115593 1.2040715
0.056873545 -0.042258777 1.2067927
0.097342402 -0.02923876 1.1918869
0.09155038 -0.030762475 1.1923316
0.086896509 -0.030868147 1.192746
0.062617406 -0.036588147 1.1985731
0.05868566 -0.038506038 1.2002187
0.053234436 -0.039630879 1.2024739
0.10139257 -0.024137393 1.1861544
0.096118852 -0.026890319 1.1858106
0.091240644 -0.026874412 1.1886377
0.082708448 -0.029940661 1.1927428
0.078289062 -0.030491281 1.1928903
0.073678389 -0.031341229 1.1935091
0.069378138 -0.032590725 1.1950291
0.06556049 -0.033980817 1.196859
0.055694096 -0.035250567 1.1971681
0.050595105 -0.037615944 1.1967379
0.045375958 -0.037335407 1.1995994
0.10433747 -0.01803809 1.1805023
0.10002553 -0.021883924 1.1807975
0.093854696 -0.022187706 1.1828057
0.049112141 -0.032729954 1.193543
0.043201104 -0.035272814 1.1944352
0.03801021 -0.033665121 1.1964228
0.10344493 -0.014983848 1.1758749
0.097306505 -0.01614698 1.1774449
0.041493103 -0.029297449 1.1908404
0.035433069 -0.031008329 1.1921995
0.10584804 -0.010637641 1.173772
0.10235927 -0.010997888 1.1731303
0.033427238 -0.027238179 1.1896764
0.030771464 -0.028326608 1.1917918
0.11499524 -0.086650431 1.2590157
0.11110394 -0.087344825 1.2569034
0.10325709 -0.087908939 1.2612239
0.094903499 -0.091161698 1.2607927
0.092420071 -0.091969356 1.2644351
0.11900412 -0.082534939 1.2533052
0.1125592 -0.085281543 1.2523506
0.10721943 -0.087442666 1.2550645
0.10208465 -0.088408083 1.2558475
0.097246632 -0.089792192 1.2574576
0.090907454 -0.090382308 1.2575492
0.085021019 -0.090542004 1.2614609
0.11916022 -0.075793572 1.2464626
0.11693618 -0.078833565 1.2474716
0.1144575 -0.081974879 1.2490526
0.10851079 -0.084309623 1.248039
0.091861784 -0.0882328 1.2520331
0.086572707 -0.08854457 1.2557464
0.082586482 -0.08692655 1.2557158
0.079092279 -0.085234135 1.2560786
0.11473167 -0.074430712 1.2418536
0.11019424 -0.079530388 1.2429535
0.086305112 -0.085158989 1.2486874
0.080056265 -0.082600474 1.2501754
0.11249962 -0.072396755 1.2374201
0.079062194 -0.080275021 1.2454455
0.1146872 -0.06743668 1.2313594
0.11085686 -0.070279911 1.2332011
0.077655494 -0.078102008 1.2411703
0.0734386 -0.075586602 1.2439661
0.11776721 -0.065181501 1.2243668
0.11487019 -0.064153068 1.229876
0.10960536 -0.067228407 1.2296489
0.1052824 -0.067084558 1.2271086
0.075129211 -0.075777873 1.2372038
0.070549533 -0.07505472 1.2394525
0.065363452 -0.076957196 1.2375969
0.11617929 -0.06130705 1.2223794
0.11573417 -0.059109561 1.2245266
0.062359452 -0.071621411 1.2362301
0.058991715 -0.074960731 1.2339284
0.1124496 -0.058044109 1.2184957
0.10420144 -0.059863418 1.2169508
0.060328253 -0.068761095 1.2318687
0.10722364 -0.053618129 1.2147119
0.1055702 -0.057316266 1.215914
0.069285184 -0.066288173 1.2242812
0.065272592 -0.064475358 1.2254101
0.060345389 -0.067808241 1.2277968
0.1077816 -0.05036553 1.2091955
0.061323904 -0.061310995 1.2203468
0.10648693 -0.046794999 1.2058703
0.059410378 -0.057886466 1.2171698
0.1031225 -0.044641528 1.2013743
0.059240304 -0.054980289 1.2119063
0.10018221 -0.039879851 1.1981173
0.058163196 -0.049779817 1.2082037
0.09755668 -0.036063947 1.1958826
0.09542495 -0.038320765 1.1933867
0.05925326 -0.046843078 1.2020684
0.057675719 -0.045460675 1.2054535
0.091243923 -0.03541071 1.19186
0.086599857 -0.035953987 1.1902386
0.080643281 -0.036516063 1.189604
0.068635568 -0.039345536 1.1924851
0.063925147 -0.041296471 1.1956799
0.060694546 -0.042608738 1.1991919
0.078214929 -0.034645822 1.1906683
0.074175403 -0.036127198 1.1908815
0.070237964 -0.036525283 1.1925831
0.10538903 -0.085793421 1.249047
0.10050216 -0.08735501 1.2502884
0.095412046 -0.088143975 1.2514415
0.1066519 -0.08038462 1.241286
0.10389014 -0.082772262 1.2428811
0.09865427 -0.085128993 1.2447734
0.092669189 -0.085415587 1.245576
0.088769659 -0.084597856 1.2455786
0.10705146 -0.077039972 1.2373209
0.10087189 -0.080048986 1.2374038
0.096257731 -0.081640027 1.2382129
0.091558784 -0.082243286 1.2396394
0.085325941 -0.08215899 1.242535
0.11950018 -0.073325656 1.2252783
0.11674297 -0.072549835 1.2283155
0.11137542 -0.072758399 1.2286121
0.10563058 -0.074592873 1.2332667
0.098938748 -0.076824926 1.2323784
0.094311714 -0.078459248 1.2332271
0.089567125 -0.079033338 1.2346267
0.08367385 -0.079766117 1.2385375
0.11837712 -0.068689972 1.2218277
0.11861296 -0.069580458 1.2264975
0.10860509 -0.071474679 1.2281436
0.10395057 -0.070733234 1.2270805
0.096912369 -0.073511302 1.2280171
0.092463121 -0.075071737 1.2288493
0.087898433 -0.07563553 1.2301794
0.081610382 -0.076165542 1.2328397
0.075323194 -0.076910287 1.2346903
0.069174714 -0.079407655 1.2343849
0.063050002 -0.080474973 1.2349827
0.11715272 -0.065041415 1.2212716
0.11491957 -0.063715488 1.2183152
0.10196055 -0.067505226 1.2222704
0.096860766 -0.069469906 1.2237493
0.091542438 -0.070901237 1.2247226
0.085376754 -0.071937785 1.2261102
0.078977093 -0.073244035 1.2280153
0.075054586 -0.07562314 1.2303056
0.070255153 -0.079085834 1.2298205
0.058402434 -0.07957124 1.2336224
0.11174682 -0.063038126 1.2157973
0.10541563 -0.062475748 1.2166954
0.099574894 -0.064590134 1.2188835
0.093976036 -0.066993468 1.2190536
0.090149105 -0.068299562 1.221451
0.084174529 -0.069360942 1.2217864
0.077531159 -0.069826424 1.2236769
0.072115958 -0.070344537 1.2235198
0.057684973 -0.072575092 1.2294211
0.055841453 -0.077060759 1.2291873
0.10342883 -0.059851974 1.2120425
0.10004222 -0.063424252 1.2137715
0.074991599 -0.069326639 1.2197833
0.07003583 -0.067719728 1.2200575
0.065438658 -0.070594117 1.2219992
0.059877977 -0.071552202 1.2237244
0.056659594 -0.074736282 1.224031
0.10576808 -0.054870315 1.2064977
0.10541952 -0.057379283 1.2093629
0.066247411 -0.06660828 1.2187663
0.063672118 -0.064788446 1.2166021
0.1046126 -0.052369751 1.2030058
0.10179842 -0.053257391 1.2004271
0.063534424 -0.062272672 1.2096113
0.062028199 -0.062402725 1.213227
0.1020962 -0.048170414 1.19995
0.09939152 -0.050715856 1.1979361
0.063301921 -0.059218198 1.2065988
0.060937807 -0.057867866 1.2098283
0.096856073 -0.04603247 1.194726
0.061954737 -0.054255635 1.2031022
0.09309423 -0.042758126 1.1913064
0.087529257 -0.045096654 1.1890212
0.0665299 -0.050044395 1.1940601
0.062091723 -0.050062504 1.198748
0.085946068 -0.040817205 1.1888634
0.080129564 -0.04184144 1.1884177
0.0753313 -0.043045636 1.1889071
0.070787445 -0.044043012 1.1906583
0.065912068 -0.045537088 1.1936724
0.11989598 -0.076226525 1.2213262
0.11784467 -0.078478821 1.2252716
0.11264729 -0.077929311 1.2251368
0.11895052 -0.073666647 1.2202163
0.11641079 -0.073072374 1.2168573
0.10837775 -0.076868355 1.2233077
0.10546127 -0.074972495 1.2216622
0.066708386 -0.081449077 1.2316868
0.062698722 -0.083370045 1.2323014
0.11374095 -0.069179222 1.2158629
0.10734075 -0.073011532 1.2160227
0.10408804 -0.072750211 1.2196554
0.068064004 -0.079659194 1.2270319
0.062431343 -0.083285816 1.2271142
0.056951568 -0.084568858 1.2298557
0.053688034 -0.084275529 1.2280725
0.10866773 -0.069304064 1.2150139
0.09155345 -0.068984166 1.2166502
0.088504165 -0.069991052 1.2173418
0.085350528 -0.070445299 1.2181406
0.067027874 -0.076652333 1.222033
0.063178837 -0.079965368 1.2212938
0.053920433 -0.080677584 1.2252613
0.053015158 -0.084307253 1.2255334
0.098059505 -0.065124854 1.2103381
0.092492387 -0.069000103 1.2114906
0.087965414 -0.070959419 1.2141466
0.082383692 -0.071382403 1.2139148
0.075810552 -0.070367172 1.2156779
0.062556639 -0.074552029 1.2204906
0.058913141 -0.07712426 1.2201585
0.055481911 -0.077334836 1.2228711
0.10214093 -0.059663534 1.2056477
0.097659692 -0.063839294 1.2050629
0.073310167 -0.069577292 1.2109054
0.068224564 -0.067654938 1.2137878
0.099784017 -0.057060722 1.2006178
0.096823797 -0.059923146 1.1999137
0.070098087 -0.066220358 1.2063285
0.066831358 -0.064824343 1.2085276
0.097055197 -0.053954825 1.1973785
0.092570856 -0.057430133 1.19646
0.086564958 -0.057287265 1.1942267
0.074703604 -0.060081776 1.1970731
0.070941851 -0.062525958 1.2016513
0.066293955 -0.061202168 1.2047628
0.089963406 -0.051807452 1.1921078
0.083853364 -0.05453499 1.1918125
0.079196855 -0.056058593 1.1922376
0.074658349 -0.056700725 1.1940209
0.068762951 -0.056802753 1.1971971
0.088646859 -0.048557349 1.1900065
0.082049102 -0.049175445 1.189075
0.07786344 -0.052563488 1.1901138
0.072646216 -0.051391214 1.191331
0.067529842 -0.053532876 1.1950747
0.076680407 -0.048655272 1.1890208
0.12022851 -0.079822138 1.2204461
0.11860901 -0.083022103 1.2214179
0.11266832 -0.081478626 1.2211695
0.11916991 -0.07865078 1.2184505
0.11618413 -0.078739733 1.2158945
0.10997614 -0.081162333 1.2177498
0.113527 -0.07438273 1.214806
0.10924786 -0.077076271 1.2155772
0.059644543 -0.084187672 1.2242661
0.055864394 -0.086565584 1.2263761
0.053932041 -0.087303765 1.2270111
0.059431985 -0.082154766 1.219996
0.054902337 -0.085014574 1.22174
0.053238548 -0.086055905 1.2246319
0.08718285 -0.071197554 1.2106516
0.058554307 -0.081253812 1.2185868
0.056319907 -0.081139639 1.2193899
0.091159895 -0.068436593 1.204847
0.085788786 -0.070577323 1.2054526
0.080342174 -0.070985511 1.2074429
0.093711913 -0.06249563 1.1990839
0.089064002 -0.065599859 1.1986128
0.083741173 -0.06827873 1.1991769
0.078123093 -0.068177342 1.2012396
0.073308825 -0.067302667 1.2039825
0.086659729 -0.062255878 1.1963713
0.082672238 -0.063235521 1.1964391
0.0779351 -0.064100996 1.1983767
0.083534896 -0.0584163 1.1943624
0.080577582 -0.059356313 1.1947534
0.077654645 -0.059801962 1.1957743
0.1170575 -0.084741488 1.2183229
0.11354278 -0.084889464 1.2175652
0.11499628 -0.083154157 1.2159007
0.11172324 -0.083466657 1.2164551
