# .PCD v0.7 - Point Cloud Data file format
VERSION 0.7
FIELDS x y z
SIZE 4 4 4
TYPE F F F
COUNT 1 1 1
WIDTH 85
HEIGHT 1
VIEWPOINT 0 0 0 1 0 0 0
POINTS 85
DATA ascii
0.093794525 -0.043884285 1.2658399
0.10016924 -0.056527983 1.2621964
0.092278004 -0.058387063 1.264091
0.096083194 -0.049853496 1.2613319
0.089858174 -0.05059341 1.2627971
0.092794418 -0.045967311 1.2541541
0.087032676 -0.048400629 1.2534665
0.11056247 -0.070857868 1.2624831
0.10937394 -0.070542634 1.2632183
0.090497106 -0.07531096 1.2675077
0.11039025 -0.065847471 1.2604845
0.10452697 -0.066780694 1.2625331
0.090903893 -0.070975058 1.2662201
0.083490625 -0.070276842 1.2638928
0.10894082 -0.055887077 1.2513772
0.10493189 -0.055949714 1.2598141
0.084104985 -0.059035003 1.2612531
0.079802349 -0.06365563 1.2578372
0.10355935 -0.049504757 1.2420228
0.095258266 -0.045234982 1.2460475
0.081036612 -0.050753634 1.2487961
0.077088326 -0.058519345 1.2482717
0.098749399 -0.043901864 1.2321128
0.089817435 -0.040707383 1.2387147
0.079115853 -0.045066316 1.2394621
0.074084163 -0.052061941 1.2370013
0.09419851 -0.038158417 1.224491
0.0865217 -0.035897441 1.2277192
0.075968832 -0.04003964 1.2294759
0.083592758 -0.035349868 1.2191253
0.075951904 -0.037507113 1.2211734
0.11150777 -0.075176165 1.2587115
0.109607 -0.0729497 1.2612479
0.090560168 -0.077006012 1.2661631
0.11194013 -0.074378341 1.2558187
0.10443231 -0.073695272 1.2568513
0.090269774 -0.079323284 1.2616448
0.083734155 -0.077031605 1.2601244
0.10938935 -0.065555818 1.2431723
0.083218753 -0.074391343 1.2471142
0.079660326 -0.071669787 1.2510883
0.10509923 -0.059660766 1.2331827
0.079479337 -0.069022261 1.2396715
0.076216131 -0.065333292 1.2397145
0.10115986 -0.05131945 1.2250845
0.075607091 -0.062068522 1.2297947
0.073176816 -0.058648169 1.2322421
0.096623436 -0.04384356 1.2171261
0.070150301 -0.047177099 1.2214037
0.070375167 -0.051538005 1.2245063
0.099353388 -0.032750458 1.202408
0.093522295 -0.038104013 1.2088951
0.085903078 -0.040295362 1.2114388
0.071705028 -0.044179186 1.2152748
0.063134581 -0.043687105 1.2142607
0.099191085 -0.027252365 1.1982309
0.095343187 -0.030662619 1.2008566
0.055313878 -0.038640477 1.2095056
0.051281765 -0.037064195 1.2084026
0.10093451 -0.076337412 1.2474746
0.093705446 -0.07804098 1.2492094
0.10598779 -0.071191758 1.2425511
0.098326847 -0.073709741 1.2411542
0.089096203 -0.074960053 1.2425803
0.1050768 -0.068528146 1.2281325
0.097056508 -0.06695085 1.2296861
0.083860606 -0.069476038 1.2337061
0.071129233 -0.073940001 1.2318171
0.099828094 -0.058252838 1.2210271
0.093211681 -0.063542351 1.2219383
0.080518618 -0.065410212 1.2249795
0.070213929 -0.071697764 1.2274058
0.095967129 -0.052184418 1.2131461
0.089187235 -0.057580058 1.2108876
0.076622218 -0.059122346 1.2150987
0.071590662 -0.05813513 1.2221106
0.092315674 -0.046488255 1.2095952
0.085346162 -0.048642945 1.2075956
0.076092646 -0.050764538 1.2102222
0.10516664 -0.074137881 1.2250376
0.08747977 -0.064989045 1.2142407
0.084210426 -0.065653026 1.2151974
0.069300875 -0.074640095 1.2257513
0.086297676 -0.063723966 1.2124352
0.083755553 -0.06467098 1.2137078
